542.0748451545669 -995.2757840917 213.67151705453443
540.3399726586345 -995.3619889362184 214.66287276649587
538.605100162702 -995.4481937807368 215.6542284784573
536.8702276667696 -995.5343986252552 216.64558419041873
535.1353551708371 -995.6206034697736 217.63693990238016
533.4004826749047 -995.7068083142921 218.6282956143416
531.6656101789722 -995.7930131588105 219.61965132630303
529.9307376830398 -995.8792180033289 220.61100703826446
527.4999999999999 -996 222.00000000000045
526.6281430925459 -997.799962647647 222.00000000000043
525.7562861850919 -999.599925295294 222.0000000000004
524.8844292776379 -1001.3998879429411 222.00000000000037
524.0125723701839 -1003.1998505905881 222.00000000000034
523.1407154627299 -1004.9998132382351 222.0000000000003
522.2688585552759 -1006.7997758858821 222.00000000000028
521.3970016478219 -1008.5997385335291 222.00000000000026
520.5251447403679 -1010.3997011811762 222.00000000000023
519.6532878329139 -1012.1996638288232 222.0000000000002
518.7814309254599 -1013.9996264764702 222.00000000000017
517.9095740180059 -1015.7995891241172 222.00000000000014
517.0377171105519 -1017.5995517717643 222.0000000000001
516.1658602030978 -1019.3995144194113 222.00000000000009
515.2940032956438 -1021.1994770670583 222.00000000000006
514.4221463881898 -1022.9994397147053 222.00000000000003
513.5502894807358 -1024.7994023623523 222
512 -1028 222
510.01544424657266 -1028 221.7519305308216
508.0308884931453 -1028 221.5038610616432
506.04633273971797 -1028 221.2557915924648
504.0617769862906 -1028 221.00772212328638
502.0772212328633 -1028 220.75965265410798
500.09266547943594 -1028 220.51158318492958
498.1081097260086 -1028 220.26351371575117
496.12355397258125 -1028 220.01544424657277
494.1389982191539 -1028 219.76737477739437
492.15444246572656 -1028 219.51930530821596
490.1698867122992 -1028 219.27123583903756
488.1853309588719 -1028 219.02316636985915
486.20077520544453 -1028 218.77509690068075
484.2162194520172 -1028 218.52702743150235
482.23166369858984 -1028 218.27895796232394
480.2471079451625 -1028 218.03088849314554
478.26255219173515 -1028 217.78281902396714
476.2779964383078 -1028 217.53474955478873
474.29344068488047 -1028 217.28668008561033
472.3088849314531 -1028 217.03861061643192
470.3243291780258 -1028 216.79054114725352
468.33977342459843 -1028 216.54247167807512
466.3552176711711 -1028 216.2944022088967
464.37066191774375 -1028 216.0463327397183
462.3861061643164 -1028 215.7982632705399
460.40155041088906 -1028 215.5501938013615
458.4169946574617 -1028 215.3021243321831
456.43243890403437 -1028 215.0540548630047
454.447883150607 -1028 214.8059853938263
452.4633273971797 -1028 214.5579159246479
450.47877164375234 -1028 214.30984645546948
448 -1028 214
446.16843581749714 -1028.801309329845 214.05723638070322
444.3368716349943 -1029.60261865969 214.11447276140643
442.5053074524914 -1030.403927989535 214.17170914210965
440.67374326998856 -1031.20523731938 214.22894552281286
438.8421790874857 -1032.0065466492251 214.28618190351608
437.01061490498284 -1032.8078559790702 214.3434182842193
435.17905072248 -1033.6091653089152 214.4006546649225
433.3474865399771 -1034.4104746387602 214.45789104562573
431.51592235747427 -1035.2117839686052 214.51512742632895
429.6843581749714 -1036.0130932984503 214.57236380703216
427.85279399246855 -1036.8144026282953 214.62960018773538
426.0212298099657 -1037.6157119581403 214.6868365684386
424.18966562746283 -1038.4170212879853 214.7440729491418
422.35810144495997 -1039.2183306178304 214.80130932984503
420.5265372624571 -1040.0196399476754 214.85854571054824
418.69497307995425 -1040.8209492775204 214.91578209125146
416.8634088974514 -1041.6222586073654 214.97301847195467
415.03184471494853 -1042.4235679372105 215.0302548526579
413.2002805324457 -1043.2248772670555 215.0874912333611
411.3687163499428 -1044.0261865969005 215.14472761406432
409.53715216743996 -1044.8274959267455 215.20196399476754
407.7055879849371 -1045.6288052565906 215.25920037547075
405.87402380243424 -1046.4301145864356 215.31643675617397
404.0424596199314 -1047.2314239162806 215.3736731368772
402.2108954374285 -1048.0327332461256 215.4309095175804
400.37933125492566 -1048.8340425759707 215.48814589828362
398.5477670724228 -1049.6353519058157 215.54538227898684
396.71620288991994 -1050.4366612356607 215.60261865969005
394.8846387074171 -1051.2379705655057 215.65985504039327
393.0530745249142 -1052.0392798953508 215.71709142109648
391.22151034241136 -1052.8405892251958 215.7743278017997
389.3899461599085 -1053.6418985550408 215.83156418250292
387.55838197740565 -1054.4432078848859 215.88880056320613
384 -1056 216
382.21114561800016 -1056.894427191 216
380.4222912360003 -1057.788854382 216
378.6334368540005 -1058.683281573 216
376.84458247200064 -1059.577708764 216
375.0557280900008 -1060.4721359549999 216
373.26687370800096 -1061.3665631459999 216
371.4780193260011 -1062.2609903369998 216
369.6891649440013 -1063.1554175279998 216
367.90031056200144 -1064.0498447189998 216
366.1114561800016 -1064.9442719099998 216
364.32260179800176 -1065.8386991009997 216
362.5337474160019 -1066.7331262919997 216
360.7448930340021 -1067.6275534829997 216
358.95603865200223 -1068.5219806739997 216
357.1671842700024 -1069.4164078649997 216
355.37832988800255 -1070.3108350559996 216
353.5894755060027 -1071.2052622469996 216
351.8006211240029 -1072.0996894379996 216
350.01176674200303 -1072.9941166289996 216
348.2229123600032 -1073.8885438199995 216
346.43405797800335 -1074.7829710109995 216
344.6452035960035 -1075.6773982019995 216
342.85634921400367 -1076.5718253929995 216
341.06749483200383 -1077.4662525839994 216
339.278640450004 -1078.3606797749994 216
337.48978606800415 -1079.2551069659994 216
335.7009316860043 -1080.1495341569994 216
333.91207730400447 -1081.0439613479994 216
332.12322292200463 -1081.9383885389993 216
330.3343685400048 -1082.8328157299993 216
328.54551415800495 -1083.7272429209993 216
326.7566597760051 -1084.6216701119993 216
324.96780539400527 -1085.5160973029992 216
323.1789510120054 -1086.4105244939992 216
321.3900966300056 -1087.3049516849992 216
319.60124224800575 -1088.1993788759992 216
317.8123878660059 -1089.0938060669992 216
316.02353348400607 -1089.9882332579991 216
314.2346791020062 -1090.882660448999 216
312.4458247200064 -1091.777087639999 216
310.65697033800654 -1092.671514830999 216
308.8681159560067 -1093.565942021999 216
307.07926157400686 -1094.460369212999 216
305.290407192007 -1095.354796403999 216
303.5015528100072 -1096.249223594999 216
301.71269842800734 -1097.143650785999 216
299.9238440460075 -1098.038077976999 216
298.13498966400766 -1098.932505167999 216
296.3461352820078 -1099.8269323589989 216
294.557280900008 -1100.7213595499989 216
292.76842651800814 -1101.6157867409988 216
290.9795721360083 -1102.5102139319988 216
289.19071775400846 -1103.4046411229988 216
287.4018633720086 -1104.2990683139988 216
285.6130089900088 -1105.1934955049987 216
283.82415460800894 -1106.0879226959987 216
282.0353002260091 -1106.9823498869987 216
280.24644584400926 -1107.8767770779987 216
278.4575914620094 -1108.7712042689986 216
276.6687370800096 -1109.6656314599986 216
274.87988269800974 -1110.5600586509986 216
273.0910283160099 -1111.4544858419986 216
271.30217393401006 -1112.3489130329986 216
269.5133195520102 -1113.2433402239985 216
267.7244651700104 -1114.1377674149985 216
265.93561078801054 -1115.0321946059985 216
264.1467564060107 -1115.9266217969985 216
262.35790202401085 -1116.8210489879984 216
260.569047642011 -1117.7154761789984 216
258.7801932600112 -1118.6099033699984 216
256 -1120 216
254.04619996520748 -1120.4273937576108 216
252.09239993041496 -1120.8547875152217 216
250.13859989562243 -1121.2821812728325 216
248.1847998608299 -1121.7095750304434 216
246.2309998260374 -1122.1369687880542 216
244.27719979124487 -1122.564362545665 216
242.32339975645235 -1122.991756303276 216
240.36959972165982 -1123.4191500608867 216
238.4157996868673 -1123.8465438184976 216
236.46199965207478 -1124.2739375761084 216
234.50819961728226 -1124.7013313337193 216
232.55439958248974 -1125.1287250913301 216
230.60059954769721 -1125.556118848941 216
228.6467995129047 -1125.9835126065518 216
226.69299947811217 -1126.4109063641627 216
224.73919944331965 -1126.8383001217735 216
222.78539940852713 -1127.2656938793843 216
220.8315993737346 -1127.6930876369952 216
218.87779933894208 -1128.120481394606 216
216.92399930414956 -1128.5478751522169 216
214.97019926935704 -1128.9752689098277 216
213.01639923456452 -1129.4026626674386 216
211.062599199772 -1129.8300564250494 216
209.10879916497947 -1130.2574501826602 216
207.15499913018695 -1130.684843940271 216
205.20119909539443 -1131.112237697882 216
203.2473990606019 -1131.5396314554928 216
201.29359902580939 -1131.9670252131036 216
199.33979899101686 -1132.3944189707145 216
197.38599895622434 -1132.8218127283253 216
195.43219892143182 -1133.2492064859362 216
193.4783988866393 -1133.676600243547 216
191.52459885184678 -1134.1039940011578 216
189.57079881705425 -1134.5313877587687 216
187.61699878226173 -1134.9587815163795 216
185.6631987474692 -1135.3861752739904 216
183.7093987126767 -1135.8135690316012 216
181.75559867788417 -1136.240962789212 216
179.80179864309164 -1136.668356546823 216
177.84799860829912 -1137.0957503044337 216
175.8941985735066 -1137.5231440620446 216
173.94039853871408 -1137.9505378196554 216
171.98659850392156 -1138.3779315772663 216
170.03279846912903 -1138.8053253348771 216
168.0789984343365 -1139.232719092488 216
166.125198399544 -1139.6601128500988 216
164.17139836475147 -1140.0875066077097 216
162.21759832995895 -1140.5149003653205 216
160.26379829516642 -1140.9422941229313 216
158.3099982603739 -1141.3696878805422 216
156.35619822558138 -1141.797081638153 216
154.40239819078886 -1142.2244753957639 216
152.44859815599634 -1142.6518691533747 216
150.49479812120381 -1143.0792629109856 216
148.5409980864113 -1143.5066566685964 216
146.58719805161877 -1143.9340504262072 216
144.63339801682625 -1144.361444183818 216
142.67959798203373 -1144.788837941429 216
140.7257979472412 -1145.2162316990398 216
138.77199791244868 -1145.6436254566506 216
136.81819787765616 -1146.0710192142615 216
134.86439784286364 -1146.4984129718723 216
132.91059780807112 -1146.9258067294832 216
130.9567977732786 -1147.353200487094 216
128 -1148 216
126.24145617896215 -1148.1844626385705 215.06538929790995
124.4829123579243 -1148.368925277141 214.1307785958199
122.72436853688646 -1148.5533879157115 213.19616789372984
120.96582471584861 -1148.737850554282 212.26155719163978
119.20728089481076 -1148.9223131928525 211.32694648954973
117.44873707377292 -1149.106775831423 210.39233578745967
115.69019325273507 -1149.2912384699935 209.45772508536962
113.93164943169722 -1149.475701108564 208.52311438327956
112.17310561065938 -1149.6601637471344 207.5885036811895
110.41456178962153 -1149.844626385705 206.65389297909945
108.65601796858368 -1150.0290890242754 205.7192822770094
106.89747414754584 -1150.213551662846 204.78467157491934
105.13893032650799 -1150.3980143014164 203.8500608728293
103.38038650547014 -1150.582476939987 202.91545017073923
101.6218426844323 -1150.7669395785574 201.98083946864918
99.86329886339445 -1150.951402217128 201.04622876655912
98.1047550423566 -1151.1358648556984 200.11161806446907
96.34621122131875 -1151.320327494269 199.17700736237902
94.5876674002809 -1151.5047901328394 198.24239666028896
92.82912357924306 -1151.6892527714099 197.3077859581989
91.07057975820521 -1151.8737154099804 196.37317525610885
89.31203593716737 -1152.0581780485509 195.4385645540188
87.55349211612952 -1152.2426406871214 194.50395385192874
85.79494829509167 -1152.4271033256919 193.5693431498387
84.03640447405382 -1152.6115659642624 192.63473244774863
82.27786065301598 -1152.7960286028328 191.70012174565858
80.51931683197813 -1152.9804912414033 190.76551104356852
78.76077301094028 -1153.1649538799738 189.83090034147847
77.00222918990244 -1153.3494165185443 188.8962896393884
75.24368536886459 -1153.5338791571148 187.96167893729836
73.48514154782674 -1153.7183417956853 187.0270682352083
71.7265977267889 -1153.9028044342558 186.09245753311825
69.96805390575105 -1154.0872670728263 185.1578468310282
68.2095100847132 -1154.2717297113968 184.22323612893814
66.45096626367535 -1154.4561923499673 183.28862542684809
64.69242244263751 -1154.6406549885378 182.35401472475803
62.93387862159966 -1154.8251176271083 181.41940402266798
61.175334800561814 -1155.0095802656788 180.48479332057792
59.41679097952397 -1155.1940429042493 179.55018261848787
57.65824715848612 -1155.3785055428198 178.6155719163978
55.89970333744827 -1155.5629681813903 177.68096121430776
54.141159516410426 -1155.7474308199608 176.7463505122177
52.38261569537258 -1155.9318934585312 175.81173981012765
50.62407187433473 -1156.1163560971017 174.8771291080376
48.865528053296885 -1156.3008187356722 173.94251840594754
47.10698423225904 -1156.4852813742427 173.00790770385748
45.34844041122119 -1156.6697440128132 172.07329700176743
43.58989659018334 -1156.8542066513837 171.13868629967737
41.8313527691455 -1157.0386692899542 170.20407559758732
40.07280894810765 -1157.2231319285247 169.26946489549726
38.3142651270698 -1157.4075945670952 168.3348541934072
36.555721306031955 -1157.5920572056657 167.40024349131716
34.79717748499411 -1157.7765198442362 166.4656327892271
33.03863366395626 -1157.9609824828067 165.53102208713705
31.280089842918414 -1158.1454451213772 164.596411385047
29.521546021880567 -1158.3299077599477 163.66180068295694
27.76300220084272 -1158.5143703985182 162.72718998086688
26.004458379804873 -1158.6988330370887 161.79257927877683
24.245914558767026 -1158.8832956756592 160.85796857668677
22.48737073772918 -1159.0677583142296 159.92335787459672
20.728826916691332 -1159.2522209528001 158.98874717250666
18.970283095653485 -1159.4366835913706 158.0541364704166
17.21173927461564 -1159.6211462299411 157.11952576832655
15.45319545357779 -1159.8056088685116 156.1849150662365
13.69465163253994 -1159.9900715070821 155.25030436414644
11.936107811502092 -1160.1745341456526 154.3156936620564
10.177563990464243 -1160.358996784223 153.38108295996634
8.419020169426394 -1160.5434594227936 152.44647225787628
6.660476348388546 -1160.727922061364 151.51186155578623
4.901932527350697 -1160.9123846999346 150.57725085369617
3.143388706312848 -1161.096847338505 149.64264015160612
1.3848448852749995 -1161.2813099770756 148.70802944951606
-0.37369893576284907 -1161.465772615646 147.773418747426
-2.1322427568006974 -1161.6502352542166 146.83880804533595
-3.890786577838546 -1161.834697892787 145.9041973432459
-5.649330398876395 -1162.0191605313576 144.96958664115584
-7.407874219914244 -1162.203623169928 144.0349759390658
-9.166418040952092 -1162.3880858084985 143.10036523697573
-10.92496186198994 -1162.572548447069 142.16575453488568
-12.68350568302779 -1162.7570110856395 141.23114383279562
-14.442049504065638 -1162.94147372421 140.29653313070557
-16.200593325103487 -1163.1259363627805 139.36192242861551
-17.959137146141334 -1163.310399001351 138.42731172652546
-19.71768096717918 -1163.4948616399215 137.4927010244354
-21.476224788217028 -1163.679324278492 136.55809032234535
-23.234768609254875 -1163.8637869170625 135.6234796202553
-24.993312430292722 -1164.048249555633 134.68886891816524
-26.75185625133057 -1164.2327121942035 133.7542582160752
-28.510400072368416 -1164.417174832774 132.81964751398513
-30.268943893406263 -1164.6016374713445 131.88503681189508
-32.02748771444411 -1164.786100109915 130.95042610980502
-33.78603153548196 -1164.9705627484855 130.01581540771497
-35.54457535651981 -1165.155025387056 129.0812047056249
-37.303119177557654 -1165.3394880256265 128.14659400353486
-39.0616629985955 -1165.523950664197 127.21198330144482
-40.82020681963335 -1165.7084133027674 126.27737259935478
-42.578750640671196 -1165.892875941338 125.34276189726474
-44.33729446170904 -1166.0773385799084 124.4081511951747
-46.09583828274689 -1166.261801218479 123.47354049308466
-47.85438210378474 -1166.4462638570494 122.53892979099462
-49.612925924822584 -1166.63072649562 121.60431908890457
-51.37146974586043 -1166.8151891341904 120.66970838681453
-53.13001356689828 -1166.999651772761 119.7350976847245
-54.888557387936125 -1167.1841144113314 118.80048698263445
-56.64710120897397 -1167.368577049902 117.86587628054441
-58.40564503001182 -1167.5530396884724 116.93126557845437
-60.164188851049666 -1167.7375023270429 115.99665487636433
-61.92273267208751 -1167.9219649656134 115.06204417427429
-63.68127649312536 -1168.1064276041839 114.12743347218425
-65.43982031416321 -1168.2908902427544 113.19282277009421
-67.19836413520106 -1168.4753528813249 112.25821206800417
-68.95690795623891 -1168.6598155198953 111.32360136591413
-70.71545177727675 -1168.8442781584658 110.38899066382409
-72.4739955983146 -1169.0287407970363 109.45437996173405
-74.23253941935245 -1169.2132034356068 108.51976925964401
-75.9910832403903 -1169.3976660741773 107.58515855755397
-77.74962706142814 -1169.5821287127478 106.65054785546393
-79.50817088246599 -1169.7665913513183 105.71593715337389
-81.26671470350384 -1169.9510539898888 104.78132645128385
-83.02525852454168 -1170.1355166284593 103.8467157491938
-84.78380234557953 -1170.3199792670298 102.91210504710376
-86.54234616661738 -1170.5044419056003 101.97749434501372
-88.30088998765522 -1170.6889045441708 101.04288364292368
-90.05943380869307 -1170.8733671827413 100.10827294083364
-91.81797762973092 -1171.0578298213118 99.1736622387436
-93.57652145076877 -1171.2422924598823 98.23905153665356
-95.33506527180661 -1171.4267550984528 97.30444083456352
-97.09360909284446 -1171.6112177370233 96.36983013247348
-98.8521529138823 -1171.7956803755937 95.43521943038344
-100.61069673492015 -1171.9801430141642 94.5006087282934
-102.369240555958 -1172.1646056527347 93.56599802620336
-104.12778437699585 -1172.3490682913052 92.63138732411332
-105.8863281980337 -1172.5335309298757 91.69677662202328
-107.64487201907154 -1172.7179935684462 90.76216591993324
-109.40341584010939 -1172.9024562070167 89.8275552178432
-111.16195966114724 -1173.0869188455872 88.89294451575316
-112.92050348218508 -1173.2713814841577 87.95833381366312
-114.67904730322293 -1173.4558441227282 87.02372311157308
-116.43759112426078 -1173.6403067612987 86.08911240948304
-118.19613494529862 -1173.8247693998692 85.154501707393
-119.95467876633647 -1174.0092320384397 84.21989100530296
-121.71322258737432 -1174.1936946770102 83.28528030321291
-123.47176640841217 -1174.3781573155807 82.35066960112287
-125.23031022945001 -1174.5626199541512 81.41605889903283
-126.98885405048786 -1174.7470825927217 80.4814481969428
-128.74739787152572 -1174.9315452312921 79.54683749485275
-130.50594169256357 -1175.1160078698626 78.61222679276271
-132.26448551360141 -1175.3004705084331 77.67761609067267
-134.02302933463926 -1175.4849331470036 76.74300538858263
-135.7815731556771 -1175.6693957855741 75.80839468649259
-137.54011697671496 -1175.8538584241446 74.87378398440255
-139.2986607977528 -1176.038321062715 73.93917328231251
-141.05720461879065 -1176.2227837012856 73.00456258022247
-142.8157484398285 -1176.407246339856 72.06995187813243
-144.57429226086634 -1176.5917089784266 71.13534117604239
-146.3328360819042 -1176.776171616997 70.20073047395235
-148.09137990294204 -1176.9606342555676 69.26611977186231
-149.84992372397988 -1177.145096894138 68.33150906977227
-151.60846754501773 -1177.3295595327086 67.39689836768223
-153.36701136605558 -1177.514022171279 66.46228766559219
-155.12555518709343 -1177.6984848098496 65.52767696350215
-156.88409900813127 -1177.88294744842 64.5930662614121
-158.64264282916912 -1178.0674100869905 63.65845555932206
-160.40118665020697 -1178.251872725561 62.72384485723201
-162.1597304712448 -1178.4363353641315 61.78923415514196
-163.91827429228266 -1178.620798002702 60.854623453051914
-165.6768181133205 -1178.8052606412725 59.92001275096187
-167.43536193435835 -1178.989723279843 58.98540204887182
-169.1939057553962 -1179.1741859184135 58.05079134678177
-170.95244957643405 -1179.358648556984 57.116180644691724
-172.7109933974719 -1179.5431111955545 56.181569942601676
-174.46953721850974 -1179.727573834125 55.24695924051163
-176.2280810395476 -1179.9120364726955 54.31234853842158
-177.98662486058544 -1180.096499111266 53.377737836331534
-179.74516868162328 -1180.2809617498365 52.443127134241486
-181.50371250266113 -1180.465424388407 51.50851643215144
-183.26225632369898 -1180.6498870269775 50.57390573006139
-185.02080014473682 -1180.834349665548 49.63929502797134
-186.77934396577467 -1181.0188123041185 48.704684325881296
-188.53788778681252 -1181.203274942689 47.77007362379125
-190.29643160785037 -1181.3877375812594 46.8354629217012
-192.0549754288882 -1181.57220021983 45.90085221961115
-193.81351924992606 -1181.7566628584004 44.966241517521105
-195.5720630709639 -1181.941125496971 44.03163081543106
-197.33060689200175 -1182.1255881355414 43.09702011334101
-199.0891507130396 -1182.310050774112 42.16240941125096
-200.84769453407745 -1182.4945134126824 41.227798709160915
-202.6062383551153 -1182.678976051253 40.29318800707087
-204.36478217615314 -1182.8634386898234 39.35857730498082
-206.123325997191 -1183.047901328394 38.42396660289077
-207.88186981822884 -1183.2323639669644 37.489355900800724
-209.64041363926668 -1183.4168266055349 36.55474519871068
-211.39895746030453 -1183.6012892441054 35.62013449662063
-213.15750128134238 -1183.7857518826759 34.68552379453058
-214.91604510238022 -1183.9702145212464 33.750913092440534
-216.67458892341807 -1184.1546771598169 32.81630239035049
-218.43313274445592 -1184.3391397983874 31.881691688260442
-220.19167656549376 -1184.5236024369578 30.9470809861704
-221.9502203865316 -1184.7080650755283 30.012470284080354
-223.70876420756946 -1184.8925277140988 29.07785958199031
-225.4673080286073 -1185.0769903526693 28.143248879900266
-227.22585184964515 -1185.2614529912398 27.208638177810222
-228.984395670683 -1185.4459156298103 26.274027475720178
-230.74293949172085 -1185.6303782683808 25.339416773630134
-232.5014833127587 -1185.8148409069513 24.40480607154009
-234.26002713379654 -1185.9993035455218 23.470195369450046
-236.0185709548344 -1186.1837661840923 22.535584667360002
-237.77711477587223 -1186.3682288226628 21.600973965269958
-239.53565859691008 -1186.5526914612333 20.666363263179914
-241.29420241794793 -1186.7371540998038 19.73175256108987
-243.05274623898578 -1186.9216167383743 18.797141858999826
-244.81129006002362 -1187.1060793769448 17.86253115690978
-246.56983388106147 -1187.2905420155153 16.927920454819738
-248.32837770209932 -1187.4750046540858 15.993309752729692
-250.08692152313716 -1187.6594672926562 15.058699050639646
-251.845465344175 -1187.8439299312267 14.1240883485496
-253.60400916521286 -1188.0283925697972 13.189477646459554
-255.3625529862507 -1188.2128552083677 12.254866944369509
-257.12109680728855 -1188.3973178469382 11.320256242279463
-258.8796406283264 -1188.5817804855087 10.385645540189417
-260.63818444936425 -1188.7662431240792 9.451034838099371
-262.3967282704021 -1188.9507057626497 8.516424136009325
-264.15527209143994 -1189.1351684012202 7.5818134339192795
-265.9138159124778 -1189.3196310397907 6.647202731829234
-267.67235973351563 -1189.5040936783612 5.712592029739188
-269.4309035545535 -1189.6885563169317 4.777981327649142
-271.1894473755913 -1189.8730189555022 3.8433706255590967
-272.9479911966292 -1190.0574815940727 2.9087599234690513
-274.706535017667 -1190.2419442326432 1.974149221379006
-276.46507883870487 -1190.4264068712137 1.0395385192889606
-278.2236226597427 -1190.6108695097842 0.1049278171989152
-279.98216648078056 -1190.7953321483546 -0.8296828848911302
-281.7407103018184 -1190.9797947869251 -1.7642935869811756
-283.49925412285626 -1191.1642574254956 -2.698904289071221
-285.2577979438941 -1191.3487200640661 -3.6335149911612663
-287.01634176493195 -1191.5331827026366 -4.568125693251312
-288.7748855859698 -1191.7176453412071 -5.502736395341357
-290.53342940700765 -1191.9021079797776 -6.437347097431402
-292.2919732280455 -1192.086570618348 -7.371957799521448
-294.05051704908334 -1192.2710332569186 -8.306568501611494
-295.8090608701212 -1192.455495895489 -9.24117920370154
-297.56760469115903 -1192.6399585340596 -10.175789905791586
-299.3261485121969 -1192.82442117263 -11.110400607881632
-301.0846923332347 -1193.0088838112006 -12.045011309971677
-302.8432361542726 -1193.193346449771 -12.979622012061723
-304.6017799753104 -1193.3778090883416 -13.914232714151769
-306.36032379634827 -1193.562271726912 -14.848843416241815
-308.1188676173861 -1193.7467343654826 -15.78345411833186
-309.87741143842396 -1193.931197004053 -16.718064820421905
-311.6359552594618 -1194.1156596426235 -17.65267552251195
-313.39449908049966 -1194.300122281194 -18.587286224601993
-315.1530429015375 -1194.4845849197645 -19.521896926692037
-316.91158672257535 -1194.669047558335 -20.45650762878208
-318.6701305436132 -1194.8535101969055 -21.391118330872125
-320.42867436465104 -1195.037972835476 -22.32572903296217
-322.1872181856889 -1195.2224354740465 -23.260339735052213
-323.94576200672674 -1195.406898112617 -24.194950437142257
-325.7043058277646 -1195.5913607511875 -25.1295611392323
-327.46284964880243 -1195.775823389758 -26.064171841322345
-329.2213934698403 -1195.9602860283285 -26.99878254341239
-330.9799372908781 -1196.144748666899 -27.933393245502433
-332.738481111916 -1196.3292113054695 -28.868003947592477
-334.4970249329538 -1196.51367394404 -29.80261464968252
-336.25556875399167 -1196.6981365826105 -30.737225351772565
-338.0141125750295 -1196.882599221181 -31.67183605386261
-339.77265639606736 -1197.0670618597514 -32.60644675595265
-341.5312002171052 -1197.251524498322 -33.5410574580427
-343.28974403814306 -1197.4359871368924 -34.47566816013275
-345.0482878591809 -1197.620449775463 -35.410278862222796
-346.80683168021875 -1197.8049124140334 -36.344889564312844
-348.5653755012566 -1197.989375052604 -37.27950026640289
-350.32391932229444 -1198.1738376911744 -38.21411096849294
-352.0824631433323 -1198.358300329745 -39.14872167058299
-353.84100696437014 -1198.5427629683154 -40.083332372673034
-355.599550785408 -1198.727225606886 -41.01794307476308
-357.35809460644583 -1198.9116882454564 -41.95255377685313
-359.1166384274837 -1199.0961508840269 -42.88716447894318
-360.8751822485215 -1199.2806135225974 -43.821775181033225
-362.6337260695594 -1199.4650761611679 -44.75638588312327
-364.3922698905972 -1199.6495387997384 -45.69099658521332
-366.15081371163507 -1199.8340014383089 -46.62560728730337
-367.9093575326729 -1200.0184640768794 -47.560217989393415
-369.66790135371076 -1200.2029267154498 -48.49482869148346
-371.4264451747486 -1200.3873893540203 -49.42943939357351
-373.18498899578645 -1200.5718519925908 -50.36405009566356
-374.9435328168243 -1200.7563146311613 -51.298660797753605
-376.70207663786215 -1200.9407772697318 -52.23327149984365
-378.4606204589 -1201.1252399083023 -53.1678822019337
-380.21916427993784 -1201.3097025468728 -54.10249290402375
-381.9777081009757 -1201.4941651854433 -55.037103606113796
-383.73625192201354 -1201.6786278240138 -55.97171430820384
-385.4947957430514 -1201.8630904625843 -56.90632501029389
-387.25333956408923 -1202.0475531011548 -57.84093571238394
-389.0118833851271 -1202.2320157397253 -58.775546414473986
-390.7704272061649 -1202.4164783782958 -59.710157116564034
-392.5289710272028 -1202.6009410168663 -60.64476781865408
-394.2875148482406 -1202.7854036554368 -61.57937852074413
-396.04605866927847 -1202.9698662940073 -62.51398922283418
-397.8046024903163 -1203.1543289325778 -63.448599924924224
-399.56314631135416 -1203.3387915711482 -64.38321062701426
-401.321690132392 -1203.5232542097187 -65.3178213291043
-403.08023395342985 -1203.7077168482892 -66.25243203119435
-404.8387777744677 -1203.8921794868597 -67.18704273328439
-406.59732159550555 -1204.0766421254302 -68.12165343537443
-408.3558654165434 -1204.2611047640007 -69.05626413746447
-410.11440923758124 -1204.4455674025712 -69.99087483955451
-411.8729530586191 -1204.6300300411417 -70.92548554164455
-413.63149687965694 -1204.8144926797122 -71.86009624373459
-415.3900407006948 -1204.9989553182827 -72.79470694582463
-417.14858452173263 -1205.1834179568532 -73.72931764791467
-418.9071283427705 -1205.3678805954237 -74.66392835000471
-420.6656721638083 -1205.5523432339942 -75.59853905209475
-422.42421598484617 -1205.7368058725647 -76.53314975418479
-424.182759805884 -1205.9212685111352 -77.46776045627483
-425.94130362692187 -1206.1057311497057 -78.40237115836487
-427.6998474479597 -1206.2901937882762 -79.33698186045491
-429.45839126899756 -1206.4746564268466 -80.27159256254495
-431.2169350900354 -1206.6591190654171 -81.206203264635
-432.97547891107325 -1206.8435817039876 -82.14081396672503
-434.7340227321111 -1207.0280443425581 -83.07542466881507
-436.49256655314895 -1207.2125069811286 -84.01003537090511
-438.2511103741868 -1207.3969696196991 -84.94464607299516
-440.00965419522464 -1207.5814322582696 -85.8792567750852
-441.7681980162625 -1207.76589489684 -86.81386747717524
-444 -1208 -88
-443.5818351292477 -1209.9068318106306 -88.4348914655824
-443.16367025849536 -1211.8136636212612 -88.86978293116479
-442.74550538774304 -1213.7204954318918 -89.30467439674719
-442.3273405169907 -1215.6273272425224 -89.73956586232958
-441.9091756462384 -1217.534159053153 -90.17445732791198
-441.4910107754861 -1219.4409908637836 -90.60934879349438
-441.07284590473375 -1221.3478226744141 -91.04424025907677
-440.65468103398143 -1223.2546544850447 -91.47913172465917
-440.2365161632291 -1225.1614862956753 -91.91402319024156
-439.8183512924768 -1227.068318106306 -92.34891465582396
-439.40018642172447 -1228.9751499169365 -92.78380612140636
-438.98202155097215 -1230.881981727567 -93.21869758698875
-438.5638566802198 -1232.7888135381977 -93.65358905257115
-438.1456918094675 -1234.6956453488283 -94.08848051815355
-437.7275269387152 -1236.6024771594589 -94.52337198373594
-437.30936206796287 -1238.5093089700895 -94.95826344931834
-436.89119719721054 -1240.41614078072 -95.39315491490073
-436.4730323264582 -1242.3229725913507 -95.82804638048313
-436.0548674557059 -1244.2298044019813 -96.26293784606553
-435.6367025849536 -1246.1366362126118 -96.69782931164792
-435.21853771420126 -1248.0434680232424 -97.13272077723032
-434.80037284344894 -1249.950299833873 -97.56761224281271
-434.3822079726966 -1251.8571316445036 -98.00250370839511
-433.9640431019443 -1253.7639634551342 -98.4373951739775
-433.545878231192 -1255.6707952657648 -98.8722866395599
-433.12771336043966 -1257.5776270763954 -99.3071781051423
-432.70954848968734 -1259.484458887026 -99.7420695707247
-432.291383618935 -1261.3912906976566 -100.17696103630709
-431.8732187481827 -1263.2981225082872 -100.61185250188949
-431.4550538774304 -1265.2049543189178 -101.04674396747188
-431.03688900667805 -1267.1117861295484 -101.48163543305428
-430.61872413592573 -1269.018617940179 -101.91652689863668
-430.2005592651734 -1270.9254497508095 -102.35141836421907
-429.7823943944211 -1272.8322815614401 -102.78630982980147
-429.36422952366877 -1274.7391133720707 -103.22120129538386
-428.94606465291645 -1276.6459451827013 -103.65609276096626
-428.5278997821641 -1278.552776993332 -104.09098422654866
-428.1097349114118 -1280.4596088039625 -104.52587569213105
-427.6915700406595 -1282.366440614593 -104.96076715771345
-427.27340516990716 -1284.2732724252237 -105.39565862329584
-426.85524029915484 -1286.1801042358543 -105.83055008887824
-426.4370754284025 -1288.0869360464849 -106.26544155446064
-426.0189105576502 -1289.9937678571155 -106.70033302004303
-425.6007456868979 -1291.900599667746 -107.13522448562543
-425.18258081614556 -1293.8074314783767 -107.57011595120782
-424.76441594539324 -1295.7142632890072 -108.00500741679022
-424.3462510746409 -1297.6210950996378 -108.43989888237262
-423.9280862038886 -1299.5279269102684 -108.87479034795501
-423.5099213331363 -1301.434758720899 -109.30968181353741
-423.09175646238396 -1303.3415905315296 -109.7445732791198
-422.67359159163163 -1305.2484223421602 -110.1794647447022
-422.2554267208793 -1307.1552541527908 -110.6143562102846
-421.837261850127 -1309.0620859634214 -111.049247675867
-421.4190969793747 -1310.968917774052 -111.48413914144939
-421.00093210862235 -1312.8757495846826 -111.91903060703179
-420.58276723787003 -1314.7825813953132 -112.35392207261418
-420.1646023671177 -1316.6894132059438 -112.78881353819658
-419.7464374963654 -1318.5962450165744 -113.22370500377897
-419.32827262561307 -1320.503076827205 -113.65859646936137
-418.91010775486075 -1322.4099086378355 -114.09348793494377
-418.4919428841084 -1324.3167404484661 -114.52837940052616
-418.0737780133561 -1326.2235722590967 -114.96327086610856
-417.6556131426038 -1328.1304040697273 -115.39816233169095
-417.23744827185146 -1330.037235880358 -115.83305379727335
-416.81928340109914 -1331.9440676909885 -116.26794526285575
-416.4011185303468 -1333.850899501619 -116.70283672843814
-415.9829536595945 -1335.7577313122497 -117.13772819402054
-415.5647887888422 -1337.6645631228803 -117.57261965960294
-415.14662391808986 -1339.5713949335109 -118.00751112518533
-414.72845904733754 -1341.4782267441415 -118.44240259076773
-414.3102941765852 -1343.385058554772 -118.87729405635012
-413.8921293058329 -1345.2918903654027 -119.31218552193252
-413.4739644350806 -1347.1987221760332 -119.74707698751492
-413.05579956432825 -1349.1055539866638 -120.18196845309731
-412.63763469357593 -1351.0123857972944 -120.61685991867971
-412.2194698228236 -1352.919217607925 -121.0517513842621
-411.8013049520713 -1354.8260494185556 -121.4866428498445
-411.38314008131897 -1356.7328812291862 -121.9215343154269
-410.96497521056665 -1358.6397130398168 -122.35642578100929
-410.54681033981433 -1360.5465448504474 -122.79131724659169
-410.128645469062 -1362.453376661078 -123.22620871217408
-409.7104805983097 -1364.3602084717086 -123.66110017775648
-409.29231572755737 -1366.2670402823392 -124.09599164333888
-408.87415085680504 -1368.1738720929698 -124.53088310892127
-408.4559859860527 -1370.0807039036004 -124.96577457450367
-408.0378211153004 -1371.987535714231 -125.40066604008607
-407.6196562445481 -1373.8943675248615 -125.83555750566846
-407.20149137379576 -1375.8011993354921 -126.27044897125086
-406.78332650304344 -1377.7080311461227 -126.70534043683325
-406.3651616322911 -1379.6148629567533 -127.14023190241565
-405.9469967615388 -1381.521694767384 -127.57512336799805
-405.5288318907865 -1383.4285265780145 -128.01001483358044
-405.11066702003416 -1385.335358388645 -128.44490629916282
-404.69250214928184 -1387.2421901992757 -128.8797977647452
-404.2743372785295 -1389.1490220099063 -129.3146892303276
-403.8561724077772 -1391.0558538205369 -129.74958069590997
-403.4380075370249 -1392.9626856311675 -130.18447216149235
-403.01984266627255 -1394.869517441798 -130.61936362707473
-402.60167779552023 -1396.7763492524286 -131.05425509265712
-402.1835129247679 -1398.6831810630592 -131.4891465582395
-401.7653480540156 -1400.5900128736898 -131.92403802382188
-401.34718318326327 -1402.4968446843204 -132.35892948940426
-400.92901831251095 -1404.403676494951 -132.79382095498664
-400.5108534417586 -1406.3105083055816 -133.22871242056902
-400.0926885710063 -1408.2173401162122 -133.6636038861514
-399.674523700254 -1410.1241719268428 -134.0984953517338
-399.25635882950166 -1412.0310037374734 -134.53338681731617
-398.83819395874934 -1413.937835548104 -134.96827828289855
-398.420029087997 -1415.8446673587346 -135.40316974848093
-398.0018642172447 -1417.7514991693652 -135.83806121406332
-397.5836993464924 -1419.6583309799958 -136.2729526796457
-397.16553447574006 -1421.5651627906263 -136.70784414522808
-396.74736960498774 -1423.471994601257 -137.14273561081046
-396.3292047342354 -1425.3788264118875 -137.57762707639284
-395.9110398634831 -1427.2856582225181 -138.01251854197523
-395.4928749927308 -1429.1924900331487 -138.4474100075576
-395.07471012197846 -1431.0993218437793 -138.88230147314
-394.65654525122613 -1433.00615365441 -139.31719293872237
-394.2383803804738 -1434.9129854650405 -139.75208440430475
-393.8202155097215 -1436.819817275671 -140.18697586988714
-393.4020506389692 -1438.7266490863017 -140.62186733546952
-392.98388576821685 -1440.6334808969323 -141.0567588010519
-392.56572089746453 -1442.5403127075629 -141.49165026663428
-392.1475560267122 -1444.4471445181935 -141.92654173221666
-391.7293911559599 -1446.353976328824 -142.36143319779904
-391.31122628520757 -1448.2608081394546 -142.79632466338143
-390.89306141445525 -1450.1676399500852 -143.2312161289638
-390.4748965437029 -1452.0744717607158 -143.6661075945462
-390.0567316729506 -1453.9813035713464 -144.10099906012857
-389.6385668021983 -1455.888135381977 -144.53589052571095
-389.22040193144596 -1457.7949671926076 -144.97078199129334
-388.80223706069364 -1459.7017990032382 -145.40567345687572
-388.3840721899413 -1461.6086308138688 -145.8405649224581
-387.965907319189 -1463.5154626244994 -146.27545638804048
-387.5477424484367 -1465.42229443513 -146.71034785362286
-387.12957757768436 -1467.3291262457606 -147.14523931920525
-386.71141270693204 -1469.2359580563912 -147.58013078478763
-386.2932478361797 -1471.1427898670217 -148.01502225037
-385.8750829654274 -1473.0496216776523 -148.4499137159524
-385.4569180946751 -1474.956453488283 -148.88480518153477
-385.03875322392275 -1476.8632852989135 -149.31969664711715
-384.62058835317043 -1478.7701171095441 -149.75458811269954
-384.2024234824181 -1480.6769489201747 -150.18947957828192
-383.7842586116658 -1482.5837807308053 -150.6243710438643
-383.36609374091347 -1484.490612541436 -151.05926250944668
-382.94792887016115 -1486.3974443520665 -151.49415397502906
-382.52976399940883 -1488.304276162697 -151.92904544061145
-382.1115991286565 -1490.2111079733277 -152.36393690619383
-381.6934342579042 -1492.1179397839583 -152.7988283717762
-381.27526938715187 -1494.0247715945889 -153.2337198373586
-380.85710451639954 -1495.9316034052194 -153.66861130294097
-380.4389396456472 -1497.83843521585 -154.10350276852336
-380.0207747748949 -1499.7452670264806 -154.53839423410574
-379.6026099041426 -1501.6520988371112 -154.97328569968812
-379.18444503339026 -1503.5589306477418 -155.4081771652705
-378.76628016263794 -1505.4657624583724 -155.84306863085288
-378.3481152918856 -1507.372594269003 -156.27796009643527
-377.9299504211333 -1509.2794260796336 -156.71285156201765
-377.511785550381 -1511.1862578902642 -157.14774302760003
-377.09362067962866 -1513.0930897008948 -157.5826344931824
-376.67545580887634 -1514.9999215115254 -158.0175259587648
-376.257290938124 -1516.906753322156 -158.45241742434717
-375.8391260673717 -1518.8135851327866 -158.88730888992956
-375.4209611966194 -1520.7204169434171 -159.32220035551194
-375.00279632586705 -1522.6272487540477 -159.75709182109432
-374.58463145511473 -1524.5340805646783 -160.1919832866767
-374.1664665843624 -1526.440912375309 -160.62687475225908
-373.7483017136101 -1528.3477441859395 -161.06176621784147
-373.33013684285777 -1530.25457599657 -161.49665768342385
-372.91197197210545 -1532.1614078072007 -161.93154914900623
-372.4938071013531 -1534.0682396178313 -162.3664406145886
-372.0756422306008 -1535.975071428462 -162.801332080171
-371.6574773598485 -1537.8819032390925 -163.23622354575338
-371.23931248909616 -1539.788735049723 -163.67111501133576
-370.82114761834384 -1541.6955668603537 -164.10600647691814
-370.4029827475915 -1543.6023986709843 -164.54089794250052
-369.9848178768392 -1545.5092304816148 -164.9757894080829
-369.5666530060869 -1547.4160622922454 -165.41068087366529
-369.14848813533456 -1549.322894102876 -165.84557233924767
-368.73032326458224 -1551.2297259135066 -166.28046380483005
-368.3121583938299 -1553.1365577241372 -166.71535527041243
-367.8939935230776 -1555.0433895347678 -167.1502467359948
-367.4758286523253 -1556.9502213453984 -167.5851382015772
-367.05766378157296 -1558.857053156029 -168.02002966715958
-366.63949891082063 -1560.7638849666596 -168.45492113274196
-366.2213340400683 -1562.6707167772902 -168.88981259832434
-365.803169169316 -1564.5775485879208 -169.32470406390672
-365.3850042985637 -1566.4843803985514 -169.7595955294891
-364.96683942781135 -1568.391212209182 -170.1944869950715
-364.54867455705903 -1570.2980440198126 -170.62937846065387
-364.1305096863067 -1572.2048758304431 -171.06426992623625
-363.7123448155544 -1574.1117076410737 -171.49916139181863
-363.29417994480207 -1576.0185394517043 -171.934052857401
-362.87601507404975 -1577.925371262335 -172.3689443229834
-362.4578502032974 -1579.8322030729655 -172.80383578856578
-362.0396853325451 -1581.739034883596 -173.23872725414816
-361.6215204617928 -1583.6458666942267 -173.67361871973054
-361.20335559104046 -1585.5526985048573 -174.10851018531292
-360.78519072028814 -1587.4595303154879 -174.5434016508953
-360.3670258495358 -1589.3663621261185 -174.9782931164777
-359.9488609787835 -1591.273193936749 -175.41318458206007
-359.5306961080312 -1593.1800257473797 -175.84807604764245
-359.11253123727886 -1595.0868575580103 -176.28296751322483
-358.69436636652654 -1596.9936893686408 -176.71785897880721
-358.2762014957742 -1598.9005211792714 -177.1527504443896
-357.8580366250219 -1600.807352989902 -177.58764190997198
-357.4398717542696 -1602.7141848005326 -178.02253337555436
-357.02170688351725 -1604.6210166111632 -178.45742484113674
-356.60354201276493 -1606.5278484217938 -178.89231630671912
-356.1853771420126 -1608.4346802324244 -179.3272077723015
-355.7672122712603 -1610.341512043055 -179.7620992378839
-355.34904740050797 -1612.2483438536856 -180.19699070346627
-354.93088252975565 -1614.1551756643162 -180.63188216904865
-354.51271765900333 -1616.0620074749468 -181.06677363463103
-354.094552788251 -1617.9688392855774 -181.50166510021342
-353.6763879174987 -1619.875671096208 -181.9365565657958
-353.25822304674637 -1621.7825029068385 -182.37144803137818
-352.84005817599405 -1623.6893347174691 -182.80633949696056
-352.4218933052417 -1625.5961665280997 -183.24123096254294
-352.0037284344894 -1627.5029983387303 -183.67612242812532
-351.5855635637371 -1629.409830149361 -184.1110138937077
-351.16739869298476 -1631.3166619599915 -184.5459053592901
-350.74923382223244 -1633.223493770622 -184.98079682487247
-350.3310689514801 -1635.1303255812527 -185.41568829045485
-349.9129040807278 -1637.0371573918833 -185.85057975603723
-349.4947392099755 -1638.9439892025139 -186.28547122161962
-349.07657433922316 -1640.8508210131445 -186.720362687202
-348.65840946847084 -1642.757652823775 -187.15525415278438
-348.2402445977185 -1644.6644846344057 -187.59014561836676
-347.8220797269662 -1646.5713164450362 -188.02503708394914
-347.4039148562139 -1648.4781482556668 -188.45992854953153
-346.98574998546155 -1650.3849800662974 -188.8948200151139
-346.56758511470923 -1652.291811876928 -189.3297114806963
-346.1494202439569 -1654.1986436875586 -189.76460294627867
-345.7312553732046 -1656.1054754981892 -190.19949441186105
-345.31309050245227 -1658.0123073088198 -190.63438587744344
-344.89492563169995 -1659.9191391194504 -191.06927734302582
-344.4767607609476 -1661.825970930081 -191.5041688086082
-344 -1664 -192
-344 -1666 -192
-344 -1668 -192
-344 -1670 -192
-344 -1672 -192
-344 -1674 -192
-344 -1676 -192
-344 -1678 -192
-344 -1680 -192
-344 -1682 -192
-344 -1684 -192
-344 -1686 -192
-344 -1688 -192
-344 -1690 -192
-344 -1692 -192
-344 -1694 -192
-344 -1696 -192
-344 -1698 -192
-344 -1700 -192
-344 -1702 -192
-344 -1704 -192
-344 -1706 -192
-344 -1708 -192
-344 -1710 -192
-344 -1712 -192
-344 -1714 -192
-344 -1716 -192
-344 -1718 -192
-344 -1720 -192
-344 -1722 -192
-344 -1724 -192
-344 -1726 -192
-344 -1728 -192
-344 -1730 -192
-344 -1732 -192
-344 -1734 -192
-344 -1736 -192
-344 -1738 -192
-344 -1740 -192
-344 -1742 -192
-344 -1744 -192
-344 -1746 -192
-344 -1748 -192
-344 -1750 -192
-344 -1752 -192
-344 -1754 -192
-344 -1756 -192
-344 -1758 -192
-344 -1760 -192
-344 -1762 -192
-344 -1764 -192
-344 -1766 -192
-344 -1768 -192
-344 -1770 -192
-344 -1772 -192
-344 -1774 -192
-344 -1776 -192
-344 -1778 -192
-344 -1780 -192
-344 -1782 -192
-344 -1784 -192
-344 -1786 -192
-344 -1788 -192
-344 -1790 -192
-344 -1792 -192
-344 -1794 -192
-344 -1796 -192
-344 -1798 -192
-344 -1800 -192
-344 -1802 -192
-344 -1804 -192
-344 -1806 -192
-344 -1808 -192
-344 -1810 -192
-344 -1812 -192
-344 -1814 -192
-344 -1816 -192
-344 -1818 -192
-344 -1820 -192
-344 -1822 -192
-344 -1824 -192
-344 -1826 -192
-344 -1828 -192
-344 -1830 -192
-344 -1832 -192
-344 -1834 -192
-344 -1836 -192
-344 -1838 -192
-344 -1840 -192
-344 -1842 -192
-344 -1844 -192
-344 -1846 -192
-344 -1848 -192
-344 -1850 -192
-344 -1852 -192
-344 -1854 -192
-344 -1856 -192
-344 -1858 -192
-344 -1860 -192
-344 -1862 -192
-344 -1864 -192
-344 -1866 -192
-344 -1868 -192
-344 -1870 -192
-344 -1872 -192
-344 -1874 -192
-344 -1876 -192
-344 -1878 -192
-344 -1880 -192
-344 -1882 -192
-344 -1884 -192
-344 -1886 -192
-344 -1888 -192
-344 -1890 -192
-344 -1892 -192
-344 -1896 -192
-344 -1898 -192
-344 -1900 -192
-344 -1902 -192
-344 -1904 -192
-344 -1906 -192
-344 -1908 -192
-344 -1910 -192
-344 -1912 -192
-344 -1914 -192
-344 -1916 -192
-344 -1918 -192
-344 -1920 -192
-344 -1922 -192
-344 -1924 -192
-344 -1926 -192
-344 -1928 -192
-344 -1930 -192
-344 -1932 -192
-344 -1934 -192
-344 -1936 -192
-344 -1938 -192
-344 -1940 -192
-344 -1942 -192
-344 -1944 -192
-344 -1946 -192
-344 -1948 -192
-344 -1950 -192
-344 -1952 -192
-344 -1954 -192
-344 -1956 -192
-344 -1958 -192
-344 -1960 -192
-344 -1962 -192
-344 -1964 -192
-344 -1966 -192
-344 -1968 -192
-344 -1970 -192
-344 -1972 -192
-344 -1974 -192
-344 -1976 -192
-344 -1978 -192
-344 -1980 -192
-344 -1984 -192
-345.65319849517846 -1985.125581954164 -192
-347.3063969903569 -1986.2511639083282 -192
-348.9595954855354 -1987.3767458624923 -192
-350.61279398071383 -1988.5023278166564 -192
-352.2659924758923 -1989.6279097708205 -192
-353.91919097107075 -1990.7534917249845 -192
-355.5723894662492 -1991.8790736791486 -192
-357.22558796142766 -1993.0046556333127 -192
-358.8787864566061 -1994.1302375874768 -192
-360.5319849517846 -1995.255819541641 -192
-362.18518344696304 -1996.381401495805 -192
-363.8383819421415 -1997.506983449969 -192
-365.49158043731995 -1998.6325654041332 -192
-367.1447789324984 -1999.7581473582973 -192
-368.79797742767687 -2000.8837293124614 -192
-370.4511759228553 -2002.0093112666254 -192
-372.1043744180338 -2003.1348932207895 -192
-373.75757291321224 -2004.2604751749536 -192
-375.4107714083907 -2005.3860571291177 -192
-377.06396990356916 -2006.5116390832818 -192
-378.7171683987476 -2007.637221037446 -192
-380.3703668939261 -2008.76280299161 -192
-382.02356538910453 -2009.888384945774 -192
-383.676763884283 -2011.0139668999382 -192
-385.32996237946145 -2012.1395488541023 -192
-386.9831608746399 -2013.2651308082663 -192
-388.63635936981836 -2014.3907127624304 -192
-390.2895578649968 -2015.5162947165945 -192
-391.9427563601753 -2016.6418766707586 -192
-393.59595485535374 -2017.7674586249227 -192
-395.2491533505322 -2018.8930405790868 -192
-396.90235184571065 -2020.018622533251 -192
-398.5555503408891 -2021.144204487415 -192
-400.20874883606757 -2022.269786441579 -192
-401.86194733124603 -2023.3953683957432 -192
-403.5151458264245 -2024.5209503499073 -192
-405.16834432160294 -2025.6465323040713 -192
-406.8215428167814 -2026.7721142582354 -192
-408.47474131195986 -2027.8976962123995 -192
-410.1279398071383 -2029.0232781665636 -192
-411.7811383023168 -2030.1488601207277 -192
-413.43433679749523 -2031.2744420748918 -192
-415.0875352926737 -2032.4000240290559 -192
-416.74073378785215 -2033.52560598322 -192
-418.3939322830306 -2034.651187937384 -192
-420.04713077820907 -2035.7767698915482 -192
-421.7003292733875 -2036.9023518457122 -192
-423.353527768566 -2038.0279337998763 -192
-425.00672626374444 -2039.1535157540404 -192
-426.6599247589229 -2040.2790977082045 -192
-428.31312325410136 -2041.4046796623686 -192
-429.9663217492798 -2042.5302616165327 -192
-431.6195202444583 -2043.6558435706968 -192
-433.27271873963673 -2044.7814255248609 -192
-434.9259172348152 -2045.907007479025 -192
