-163.0089658460671 -51.76120730758399 235.43581890386184
-164.24987262099427 -53.31234077624295 235.203148883563
-165.49077939592144 -54.86347424490191 234.97047886326413
-166.7316861708486 -56.41460771356087 234.73780884296528
-167.97259294577577 -57.96574118221983 234.50513882266642
-169.21349972070294 -59.51687465087879 234.27246880236757
-170.4544064956301 -61.06800811953775 234.03979878206871
-171.69531327055728 -62.61914158819671 233.80712876176986
-172.93622004548445 -64.17027505685567 233.574458741471
-174.17712682041162 -65.72140852551463 233.34178872117215
-175.41803359533878 -67.2725419941736 233.1091187008733
-176.65894037026595 -68.82367546283255 232.87644868057444
-177.89984714519312 -70.37480893149151 232.6437786602756
-179.1407539201203 -71.92594240015048 232.41110863997673
-180.38166069504746 -73.47707586880944 232.17843861967788
-181.62256746997463 -75.0282093374684 231.94576859937902
-182.8634742449018 -76.57934280612736 231.71309857908017
-184.10438101982896 -78.13047627478632 231.4804285587813
-185.34528779475613 -79.68160974344528 231.24775853848246
-186.5861945696833 -81.23274321210424 231.0150885181836
-187.82710134461047 -82.7838766807632 230.78241849788475
-189.06800811953764 -84.33501014942216 230.5497484775859
-190.3089148944648 -85.88614361808112 230.31707845728704
-191.54982166939197 -87.43727708674008 230.08440843698818
-192.79072844431914 -88.98841055539904 229.85173841668933
-194.0316352192463 -90.539544024058 229.61906839639047
-195.27254199417348 -92.09067749271696 229.38639837609162
-196.51344876910065 -93.64181096137592 229.15372835579277
-197.75435554402782 -95.19294443003488 228.9210583354939
-198.99526231895499 -96.74407789869385 228.68838831519506
-200.23616909388215 -98.2952113673528 228.4557182948962
-201.47707586880932 -99.84634483601177 228.22304827459735
-202.7179826437365 -101.39747830467073 227.9903782542985
-203.95888941866366 -102.94861177332969 227.75770823399964
-205.19979619359083 -104.49974524198865 227.52503821370078
-206.440702968518 -106.05087871064761 227.29236819340193
-207.68160974344516 -107.60201217930657 227.05969817310307
-208.92251651837233 -109.15314564796553 226.82702815280422
-210.1634232932995 -110.70427911662449 226.59435813250536
-211.40433006822667 -112.25541258528345 226.3616881122065
-212.64523684315384 -113.80654605394241 226.12901809190765
-213.886143618081 -115.35767952260137 225.8963480716088
-215.12705039300818 -116.90881299126033 225.66367805130994
-216.36795716793534 -118.4599464599193 225.4310080310111
-217.6088639428625 -120.01107992857825 225.19833801071223
-218.84977071778968 -121.56221339723722 224.96566799041338
-220.09067749271685 -123.11334686589618 224.73299797011452
-221.33158426764402 -124.66448033455514 224.50032794981567
-222.5724910425712 -126.2156138032141 224.26765792951682
-224 -128 224
-224.505712579863 -129.89900234071 223.62845606377414
-225.011425159726 -131.79800468142003 223.25691212754828
-225.517137739589 -133.69700702213004 222.8853681913224
-226.022850319452 -135.59600936284005 222.51382425509655
-226.528562899315 -137.49501170355006 222.1422803188707
-227.034275479178 -139.39401404426008 221.77073638264483
-227.539988059041 -141.2930163849701 221.39919244641897
-228.045700638904 -143.1920187256801 221.0276485101931
-228.551413218767 -145.0910210663901 220.65610457396724
-229.05712579863 -146.99002340710013 220.28456063774138
-229.562838378493 -148.88902574781014 219.91301670151552
-230.068550958356 -150.78802808852015 219.54147276528965
-230.57426353821901 -152.68703042923016 219.1699288290638
-231.07997611808202 -154.58603276994018 218.79838489283793
-231.58568869794502 -156.4850351106502 218.42684095661207
-232.09140127780802 -158.3840374513602 218.0552970203862
-232.59711385767102 -160.2830397920702 217.68375308416034
-233.10282643753402 -162.18204213278023 217.31220914793448
-233.60853901739702 -164.08104447349024 216.94066521170862
-234.11425159726002 -165.98004681420025 216.56912127548276
-234.61996417712302 -167.87904915491026 216.1975773392569
-235.12567675698602 -169.77805149562028 215.82603340303103
-235.63138933684903 -171.6770538363303 215.45448946680517
-236.13710191671203 -173.5760561770403 215.0829455305793
-236.64281449657503 -175.4750585177503 214.71140159435345
-237.14852707643803 -177.37406085846033 214.33985765812758
-237.65423965630103 -179.27306319917034 213.96831372190172
-238.15995223616403 -181.17206553988035 213.59676978567586
-238.66566481602703 -183.07106788059036 213.22522584945
-239.17137739589003 -184.97007022130038 212.85368191322414
-239.67708997575303 -186.8690725620104 212.48213797699827
-240.18280255561604 -188.7680749027204 212.1105940407724
-240.68851513547904 -190.6670772434304 211.73905010454655
-241.19422771534204 -192.56607958414043 211.3675061683207
-241.69994029520504 -194.46508192485044 210.99596223209483
-242.20565287506804 -196.36408426556045 210.62441829586896
-242.71136545493104 -198.26308660627046 210.2528743596431
-243.21707803479404 -200.16208894698048 209.88133042341724
-243.72279061465704 -202.0610912876905 209.50978648719138
-244.22850319452004 -203.9600936284005 209.13824255096551
-244.73421577438305 -205.8590959691105 208.76669861473965
-245.23992835424605 -207.75809830982053 208.3951546785138
-245.74564093410905 -209.65710065053054 208.02361074228793
-246.25135351397205 -211.55610299124055 207.65206680606207
-246.75706609383505 -213.45510533195056 207.2805228698362
-247.26277867369805 -215.35410767266058 206.90897893361034
-247.76849125356105 -217.2531100133706 206.53743499738448
-248.27420383342405 -219.1521123540806 206.16589106115862
-248.77991641328705 -221.0511146947906 205.79434712493276
-249.28562899315006 -222.95011703550063 205.4228031887069
-249.79134157301306 -224.84911937621064 205.05125925248103
-250.29705415287606 -226.74812171692065 204.67971531625517
-250.80276673273906 -228.64712405763066 204.3081713800293
-251.30847931260206 -230.54612639834068 203.93662744380345
-251.81419189246506 -232.4451287390507 203.56508350757758
-252.31990447232806 -234.3441310797607 203.19353957135172
-252.82561705219106 -236.2431334204707 202.82199563512586
-253.33132963205406 -238.14213576118073 202.4504516989
-253.83704221191707 -240.04113810189074 202.07890776267413
-254.34275479178007 -241.94014044260075 201.70736382644827
-254.84846737164307 -243.83914278331076 201.3358198902224
-255.35417995150607 -245.73814512402078 200.96427595399655
-255.85989253136907 -247.6371474647308 200.5927320177707
-256.36560511123207 -249.5361498054408 200.22118808154482
-256.87131769109504 -251.4351521461508 199.84964414531896
-257.377030270958 -253.33415448686083 199.4781002090931
-257.882742850821 -255.23315682757084 199.10655627286724
-258.38845543068396 -257.13215916828085 198.73501233664138
-258.89416801054693 -259.03116150899086 198.3634684004155
-259.3998805904099 -260.9301638497009 197.99192446418965
-259.9055931702729 -262.8291661904109 197.6203805279638
-260.41130575013585 -264.7281685311209 197.24883659173793
-260.9170183299988 -266.6271708718309 196.87729265551206
-261.4227309098618 -268.5261732125409 196.5057487192862
-261.92844348972477 -270.42517555325094 196.13420478306034
-262.43415606958774 -272.32417789396095 195.76266084683448
-262.9398686494507 -274.22318023467096 195.39111691060862
-263.4455812293137 -276.122182575381 195.01957297438275
-263.95129380917666 -278.021184916091 194.6480290381569
-264.45700638903963 -279.920187256801 194.27648510193103
-264.9627189689026 -281.819189597511 193.90494116570517
-265.4684315487656 -283.718191938221 193.5333972294793
-265.97414412862855 -285.61719427893104 193.16185329325344
-266.4798567084915 -287.51619661964105 192.79030935702758
-266.9855692883545 -289.41519896035106 192.41876542080172
-267.49128186821747 -291.3142013010611 192.04722148457586
-267.99699444808044 -293.2132036417711 191.67567754835
-268.5027070279434 -295.1122059824811 191.30413361212413
-269.0084196078064 -297.0112083231911 190.93258967589827
-269.51413218766936 -298.9102106639011 190.5610457396724
-270.01984476753233 -300.80921300461114 190.18950180344655
-270.5255573473953 -302.70821534532115 189.81795786722068
-271.0312699272583 -304.60721768603116 189.44641393099482
-271.53698250712125 -306.5062200267412 189.07486999476896
-272.0426950869842 -308.4052223674512 188.7033260585431
-272.99999999999994 -312 188
-272.105572809 -313.78885438199984 188
-271.2111456180001 -315.5777087639997 188
-270.3167184270002 -317.3665631459995 188
-268.99999999999994 -320 188
-268.99999999999994 -322 188
-268.99999999999994 -324 188
-268.99999999999994 -326 188
-268.99999999999994 -328 188
-268.99999999999994 -330 188
-268.99999999999994 -332 188
-268.99999999999994 -334 188
-268.99999999999994 -336 188
-268.99999999999994 -338 188
-268.99999999999994 -340 188
-268.99999999999994 -342 188
-268.99999999999994 -344 188
-268.99999999999994 -346 188
-268.99999999999994 -348 188
-268.99999999999994 -350 188
-268.99999999999994 -352 188
-268.99999999999994 -354 188
-268.99999999999994 -356 188
-268.99999999999994 -358 188
-268.99999999999994 -360 188
-268.99999999999994 -362 188
-268.99999999999994 -364 188
-268.99999999999994 -366 188
-268.99999999999994 -368 188
-268.99999999999994 -370 188
-268.99999999999994 -372 188
-268.99999999999994 -374 188
-268.99999999999994 -376 188
-268.99999999999994 -378 188
-268.99999999999994 -380 188
-268.99999999999994 -384 188
-269.89442719099986 -385.78885438199984 188
-270.7888543819998 -387.5777087639997 188
-271.6832815729997 -389.3665631459995 188
-273 -392 188
-273.79623855622276 -393.8296545547247 188.13552996701665
-274.5924771124455 -395.6593091094494 188.2710599340333
-275.3887156686683 -397.4889636641741 188.40658990104995
-276.18495422489104 -399.3186182188988 188.5421198680666
-276.9811927811138 -401.1482727736235 188.67764983508326
-277.77743133733657 -402.9779273283482 188.8131798020999
-278.5736698935593 -404.8075818830729 188.94870976911656
-279.3699084497821 -406.6372364377976 189.0842397361332
-280.16614700600485 -408.4668909925223 189.21976970314986
-280.9623855622276 -410.296545547247 189.35529967016652
-281.75862411845037 -412.1262001019717 189.49082963718317
-282.55486267467313 -413.9558546566964 189.62635960419982
-283.3511012308959 -415.7855092114211 189.76188957121647
-284.14733978711865 -417.61516376614577 189.89741953823312
-284.9435783433414 -419.44481832087047 190.03294950524977
-285.7398168995642 -421.27447287559517 190.16847947226643
-286.53605545578694 -423.10412743031986 190.30400943928308
-287.3322940120097 -424.93378198504456 190.43953940629973
-288.12853256823246 -426.76343653976926 190.57506937331638
-288.9247711244552 -428.59309109449396 190.71059934033303
-289.721009680678 -430.42274564921865 190.84612930734968
-290.51724823690074 -432.25240020394335 190.98165927436634
-291.3134867931235 -434.08205475866805 191.117189241383
-292.10972534934626 -435.91170931339275 191.25271920839964
-292.905963905569 -437.74136386811745 191.3882491754163
-293.7022024617918 -439.57101842284214 191.52377914243294
-294.49844101801455 -441.40067297756684 191.6593091094496
-295.2946795742373 -443.23032753229154 191.79483907646625
-296.09091813046007 -445.05998208701624 191.9303690434829
-296.88715668668283 -446.88963664174094 192.06589901049955
-297.6833952429056 -448.71929119646563 192.2014289775162
-298.47963379912835 -450.54894575119033 192.33695894453285
-299.2758723553511 -452.37860030591503 192.4724889115495
-300.0721109115739 -454.2082548606397 192.60801887856616
-300.86834946779663 -456.0379094153644 192.7435488455828
-301.6645880240194 -457.8675639700891 192.87907881259946
-302.46082658024216 -459.6972185248138 193.0146087796161
-303.2570651364649 -461.5268730795385 193.15013874663276
-304.0533036926877 -463.3565276342632 193.28566871364941
-304.84954224891044 -465.1861821889879 193.42119868066607
-305.6457808051332 -467.0158367437126 193.55672864768272
-306.44201936135596 -468.8454912984373 193.69225861469937
-307.2382579175787 -470.675145853162 193.82778858171602
-308.0344964738015 -472.5048004078867 193.96331854873267
-308.83073503002424 -474.3344549626114 194.09884851574932
-309.626973586247 -476.1641095173361 194.23437848276598
-310.42321214246977 -477.9937640720608 194.36990844978263
-311.2194506986925 -479.8234186267855 194.50543841679928
-312.0156892549153 -481.6530731815102 194.64096838381593
-312.81192781113805 -483.4827277362349 194.77649835083258
-313.6081663673608 -485.3123822909596 194.91202831784923
-314.40440492358357 -487.1420368456843 195.0475582848659
-315.20064347980633 -488.971691400409 195.18308825188254
-315.9968820360291 -490.8013459551337 195.3186182188992
-316.79312059225185 -492.6310005098584 195.45414818591584
-317.5893591484746 -494.4606550645831 195.5896781529325
-318.3855977046974 -496.2903096193078 195.72520811994914
-319.18183626092014 -498.1199641740325 195.8607380869658
-320 -500 196
-320.9720050670929 -501.3084683595481 197.15892911845688
-321.94401013418576 -502.6169367190962 198.31785823691376
-322.91601520127864 -503.9254050786443 199.47678735537065
-323.8880202683715 -505.2338734381924 200.63571647382753
-324.8600253354644 -506.5423417977405 201.7946455922844
-325.8320304025573 -507.8508101572886 202.9535747107413
-326.80403546965016 -509.1592785168367 204.11250382919818
-327.77604053674304 -510.4677468763848 205.27143294765506
-328.7480456038359 -511.7762152359329 206.43036206611194
-329.7200506709288 -513.084683595481 207.58929118456882
-330.6920557380217 -514.3931519550291 208.7482203030257
-331.66406080511456 -515.7016203145772 209.9071494214826
-332.63606587220744 -517.0100886741253 211.06607853993947
-333.6080709393003 -518.3185570336734 212.22500765839635
-334.5800760063932 -519.6270253932215 213.38393677685323
-335.5520810734861 -520.9354937527696 214.54286589531011
-336.52408614057896 -522.2439621123177 215.701795013767
-337.49609120767184 -523.5524304718658 216.86072413222388
-338.4680962747647 -524.8608988314139 218.01965325068076
-339.4401013418576 -526.169367190962 219.17858236913764
-340.4121064089505 -527.4778355505101 220.33751148759453
-341.38411147604336 -528.7863039100582 221.4964406060514
-342.35611654313624 -530.0947722696063 222.6553697245083
-343.3281216102291 -531.4032406291544 223.81429884296517
-344.300126677322 -532.7117089887025 224.97322796142205
-345.2721317444149 -534.0201773482506 226.13215707987894
-346.24413681150776 -535.3286457077987 227.29108619833582
-347.21614187860064 -536.6371140673468 228.4500153167927
-348.1881469456935 -537.9455824268949 229.60894443524958
-349.1601520127864 -539.254050786443 230.76787355370647
-350.1321570798793 -540.5625191459911 231.92680267216335
-351.10416214697216 -541.8709875055392 233.08573179062023
-352.07616721406504 -543.1794558650873 234.2446609090771
-353.0481722811579 -544.4879242246354 235.403590027534
-354.0201773482508 -545.7963925841835 236.56251914599088
-354.9921824153437 -547.1048609437316 237.72144826444776
-355.96418748243656 -548.4133293032797 238.88037738290464
-356.93619254952944 -549.7217976628278 240.03930650136152
-357.9081976166223 -551.0302660223759 241.1982356198184
-358.8802026837152 -552.338734381924 242.3571647382753
-359.8522077508081 -553.6472027414721 243.51609385673217
-360.82421281790096 -554.9556711010202 244.67502297518905
-361.79621788499384 -556.2641394605683 245.83395209364593
-362.7682229520867 -557.5726078201164 246.99288121210282
-363.7402280191796 -558.8810761796645 248.1518103305597
-364.7122330862725 -560.1895445392126 249.31073944901658
-365.68423815336536 -561.4980128987607 250.46966856747346
-366.65624322045824 -562.8064812583088 251.62859768593034
-367.6282482875511 -564.114949617857 252.78752680438723
-368.600253354644 -565.423417977405 253.9464559228441
-369.5722584217369 -566.7318863369532 255.105385041301
-370.54426348882976 -568.0403546965013 256.2643141597579
-371.51626855592264 -569.3488230560494 257.4232432782148
-372.4882736230155 -570.6572914155975 258.5821723966717
-373.4602786901084 -571.9657597751456 259.7411015151286
-374.4322837572013 -573.2742281346937 260.9000306335855
-375.40428882429416 -574.5826964942418 262.0589597520424
-376.37629389138704 -575.8911648537899 263.21788887049934
-377.3482989584799 -577.199633213338 264.37681798895625
-378.3203040255728 -578.5081015728861 265.53574710741316
-379.2923090926657 -579.8165699324342 266.69467622587007
-380.26431415975856 -581.1250382919823 267.853605344327
-381.23631922685144 -582.4335066515304 269.0125344627839
-382.2083242939443 -583.7419750110785 270.1714635812408
-383.1803293610372 -585.0504433706266 271.3303926996977
-384.1523344281301 -586.3589117301747 272.4893218181546
-385.12433949522296 -587.6673800897228 273.64825093661153
-386.09634456231583 -588.9758484492709 274.80718005506844
-387.0683496294087 -590.284316808819 275.96610917352535
-388.0403546965016 -591.5927851683671 277.12503829198226
-389.0123597635945 -592.9012535279152 278.2839674104392
-389.98436483068735 -594.2097218874633 279.4428965288961
-390.95636989778023 -595.5181902470114 280.601825647353
-391.9283749648731 -596.8266586065595 281.7607547658099
-392.900380031966 -598.1351269661076 282.9196838842668
-393.8723850990589 -599.4435953256557 284.0786130027237
-394.84439016615175 -600.7520636852038 285.23754212118064
-395.81639523324463 -602.0605320447519 286.39647123963755
-396.7884003003375 -603.3690004043 287.55540035809446
-397.7604053674304 -604.6774687638481 288.71432947655137
-398.7324104345233 -605.9859371233962 289.8732585950083
-399.70441550161615 -607.2944054829443 291.0321877134652
-400.67642056870903 -608.6028738424924 292.1911168319221
-401.6484256358019 -609.9113422020405 293.350045950379
-402.6204307028948 -611.2198105615886 294.5089750688359
-403.5924357699877 -612.5282789211367 295.66790418729283
-404.56444083708055 -613.8367472806848 296.82683330574974
-405.53644590417343 -615.1452156402329 297.98576242420665
-406.5084509712663 -616.453683999781 299.14469154266357
-407.4804560383592 -617.7621523593291 300.3036206611205
-408.4524611054521 -619.0706207188772 301.4625497795774
-409.42446617254495 -620.3790890784253 302.6214788980343
-410.39647123963783 -621.6875574379734 303.7804080164912
-411.3684763067307 -622.9960257975215 304.9393371349481
-412.3404813738236 -624.3044941570696 306.09826625340503
-413.3124864409165 -625.6129625166177 307.25719537186194
-414.28449150800935 -626.9214308761658 308.41612449031885
-415.25649657510223 -628.2298992357139 309.57505360877576
-416.2285016421951 -629.538367595262 310.73398272723267
-417.200506709288 -630.8468359548101 311.8929118456896
-418.1725117763809 -632.1553043143582 313.0518409641465
-419.14451684347375 -633.4637726739063 314.2107700826034
-420.11652191056663 -634.7722410334544 315.3696992010603
-421.0885269776595 -636.0807093930025 316.5286283195172
-422.0605320447524 -637.3891777525506 317.68755743797414
-424 -640 320
-425.22788122702985 -641.5787044347527 320
-426.4557624540597 -643.1574088695054 320
-427.68364368108956 -644.7361133042581 320
-428.9115249081194 -646.3148177390108 320
-430.1394061351493 -647.8935221737635 320
-431.3672873621791 -649.4722266085162 320
-432.595168589209 -651.0509310432689 320
-433.82304981623884 -652.6296354780216 320
-435.0509310432687 -654.2083399127742 320
-436.27881227029854 -655.787044347527 320
-437.5066934973284 -657.3657487822796 320
-438.73457472435825 -658.9444532170323 320
-439.9624559513881 -660.523157651785 320
-441.19033717841796 -662.1018620865377 320
-442.4182184054478 -663.6805665212904 320
-443.64609963247767 -665.2592709560431 320
-444.8739808595075 -666.8379753907958 320
-446.1018620865374 -668.4166798255485 320
-447.32974331356723 -669.9953842603012 320
-448.5576245405971 -671.5740886950539 320
-449.78550576762694 -673.1527931298066 320
-451.0133869946568 -674.7314975645593 320
-452.24126822168665 -676.310201999312 320
-453.4691494487165 -677.8889064340647 320
-454.69703067574636 -679.4676108688174 320
-455.9249119027762 -681.04631530357 320
-457.15279312980607 -682.6250197383227 320
-458.3806743568359 -684.2037241730754 320
-459.6085555838658 -685.7824286078281 320
-460.83643681089563 -687.3611330425808 320
-462.0643180379255 -688.9398374773335 320
-463.29219926495534 -690.5185419120862 320
-464.5200804919852 -692.0972463468389 320
-465.74796171901505 -693.6759507815916 320
-466.9758429460449 -695.2546552163443 320
-468.20372417307476 -696.833359651097 320
-469.4316054001046 -698.4120640858497 320
-470.65948662713447 -699.9907685206024 320
-471.8873678541643 -701.5694729553551 320
-473.1152490811942 -703.1481773901078 320
-474.34313030822403 -704.7268818248605 320
-475.5710115352539 -706.3055862596132 320
-476.79889276228374 -707.8842906943659 320
-478.0267739893136 -709.4629951291186 320
-479.25465521634345 -711.0416995638712 320
-480.4825364433733 -712.6204039986239 320
-481.71041767040316 -714.1991084333766 320
-482.938298897433 -715.7778128681293 320
-484.16618012446287 -717.356517302882 320
-485.3940613514927 -718.9352217376347 320
-486.6219425785226 -720.5139261723874 320
-487.84982380555243 -722.0926306071401 320
-489.0777050325823 -723.6713350418928 320
-490.30558625961214 -725.2500394766455 320
-491.533467486642 -726.8287439113982 320
-492.76134871367185 -728.4074483461509 320
-493.9892299407017 -729.9861527809036 320
-495.21711116773156 -731.5648572156563 320
-496.4449923947614 -733.143561650409 320
-497.67287362179127 -734.7222660851617 320
-498.9007548488211 -736.3009705199144 320
-500.128636075851 -737.879674954667 320
-501.35651730288083 -739.4583793894197 320
-502.5843985299107 -741.0370838241724 320
-503.81227975694054 -742.6157882589251 320
-505.0401609839704 -744.1944926936778 320
-506.26804221100025 -745.7731971284305 320
-507.4959234380301 -747.3519015631832 320
-508.72380466505996 -748.9306059979359 320
-509.9516858920898 -750.5093104326886 320
-511.17956711911967 -752.0880148674413 320
-512.4074483461495 -753.666719302194 320
-513.6353295731793 -755.2454237369467 320
-514.8632108002091 -756.8241281716994 320
-516.0910920272389 -758.4028326064521 320
-517.3189732542687 -759.9815370412048 320
-518.5468544812985 -761.5602414759575 320
-519.7747357083283 -763.1389459107102 320
-521.0026169353581 -764.7176503454629 320
-522.2304981623879 -766.2963547802156 320
-523.4583793894177 -767.8750592149682 320
-524.6862606164475 -769.4537636497209 320
-525.9141418434773 -771.0324680844736 320
-527.1420230705071 -772.6111725192263 320
-528.3699042975369 -774.189876953979 320
-529.5977855245667 -775.7685813887317 320
-530.8256667515965 -777.3472858234844 320
-532.0535479786263 -778.9259902582371 320
-533.2814292056561 -780.5046946929898 320
-534.5093104326859 -782.0833991277425 320
-535.7371916597157 -783.6621035624952 320
-536.9650728867455 -785.2408079972479 320
-538.1929541137753 -786.8195124320006 320
-539.4208353408051 -788.3982168667533 320
-540.6487165678349 -789.976921301506 320
-541.8765977948647 -791.5556257362587 320
-543.1044790218945 -793.1343301710114 320
-544.3323602489243 -794.713034605764 320
-545.5602414759541 -796.2917390405167 320
-546.7881227029839 -797.8704434752694 320
-548.0160039300137 -799.4491479100221 320
-549.2438851570435 -801.0278523447748 320
-550.4717663840732 -802.6065567795275 320
-551.699647611103 -804.1852612142802 320
-552.9275288381328 -805.7639656490329 320
-554.1554100651626 -807.3426700837856 320
-555.3832912921924 -808.9213745185383 320
-556.6111725192222 -810.500078953291 320
-557.839053746252 -812.0787833880437 320
-559.0669349732818 -813.6574878227964 320
-560.2948162003116 -815.2361922575491 320
-561.5226974273414 -816.8148966923018 320
-562.7505786543712 -818.3936011270545 320
-563.978459881401 -819.9723055618072 320
-565.2063411084308 -821.5510099965599 320
-566.4342223354606 -823.1297144313126 320
-567.6621035624904 -824.7084188660652 320
-568.8899847895202 -826.2871233008179 320
-570.11786601655 -827.8658277355706 320
-571.3457472435798 -829.4445321703233 320
-572.5736284706096 -831.023236605076 320
-573.8015096976394 -832.6019410398287 320
-575.0293909246692 -834.1806454745814 320
-576.257272151699 -835.7593499093341 320
-577.4851533787288 -837.3380543440868 320
-578.7130346057586 -838.9167587788395 320
-579.9409158327884 -840.4954632135922 320
-581.1687970598182 -842.0741676483449 320
-582.396678286848 -843.6528720830976 320
-583.6245595138778 -845.2315765178503 320
-584.8524407409076 -846.810280952603 320
-586.0803219679374 -848.3889853873557 320
-587.3082031949672 -849.9676898221084 320
-588.536084421997 -851.546394256861 320
-589.7639656490268 -853.1250986916137 320
-592 -856 320
-593.609756097561 -855.8048780487804 318.8292682926829
-595.219512195122 -855.6097560975609 317.6585365853658
-596.829268292683 -855.4146341463413 316.48780487804873
-598.439024390244 -855.2195121951218 315.31707317073165
-600.048780487805 -855.0243902439022 314.14634146341456
-601.6585365853659 -854.8292682926826 312.97560975609747
-603.2682926829269 -854.6341463414631 311.8048780487804
-604.8780487804879 -854.4390243902435 310.6341463414633
-606.4878048780489 -854.2439024390239 309.4634146341462
-608.0975609756099 -854.0487804878044 308.2926829268291
-609.7073170731709 -853.8536585365848 307.121951219512
-611.3170731707319 -853.6585365853653 305.95121951219494
-612.9268292682929 -853.4634146341457 304.78048780487785
-614.5365853658539 -853.2682926829261 303.60975609756076
-616.1463414634148 -853.0731707317066 302.4390243902437
-617.7560975609758 -852.878048780487 301.2682926829266
-619.3658536585368 -852.6829268292674 300.0975609756095
-620.9756097560978 -852.4878048780479 298.9268292682924
-622.5853658536588 -852.2926829268283 297.7560975609753
-624.1951219512198 -852.0975609756088 296.58536585365823
-625.8048780487808 -851.9024390243892 295.41463414634114
-627.4146341463418 -851.7073170731696 294.24390243902405
-629.0243902439028 -851.5121951219501 293.07317073170697
-630.6341463414637 -851.3170731707305 291.9024390243899
-632.2439024390247 -851.121951219511 290.7317073170728
-633.8536585365857 -850.9268292682914 289.5609756097557
-635.4634146341467 -850.7317073170718 288.3902439024386
-637.0731707317077 -850.5365853658523 287.2195121951215
-638.6829268292687 -850.3414634146327 286.04878048780444
-640.2926829268297 -850.1463414634131 284.87804878048735
-641.9024390243907 -849.9512195121936 283.70731707317026
-643.5121951219517 -849.756097560974 282.53658536585317
-645.1219512195127 -849.5609756097545 281.3658536585361
-646.7317073170736 -849.3658536585349 280.195121951219
-648.3414634146346 -849.1707317073153 279.0243902439019
-649.9512195121956 -848.9756097560958 277.8536585365848
-651.5609756097566 -848.7804878048762 276.6829268292677
-653.1707317073176 -848.5853658536566 275.51219512195064
-654.7804878048786 -848.3902439024371 274.34146341463355
-656.3902439024396 -848.1951219512175 273.17073170731646
-658.0000000000006 -847.999999999998 271.9999999999994
-659.6097560975616 -847.8048780487784 270.8292682926823
-661.2195121951225 -847.6097560975588 269.6585365853652
-662.8292682926835 -847.4146341463393 268.4878048780481
-664.4390243902445 -847.2195121951197 267.317073170731
-666.0487804878055 -847.0243902439001 266.14634146341393
-667.6585365853665 -846.8292682926806 264.97560975609684
-669.2682926829275 -846.634146341461 263.80487804877976
-670.8780487804885 -846.4390243902415 262.63414634146267
-672.4878048780495 -846.2439024390219 261.4634146341456
-674.0975609756105 -846.0487804878023 260.2926829268285
-675.7073170731715 -845.8536585365828 259.1219512195114
-677.3170731707324 -845.6585365853632 257.9512195121943
-678.9268292682934 -845.4634146341436 256.7804878048772
-680.5365853658544 -845.2682926829241 255.60975609756017
-682.1463414634154 -845.0731707317045 254.4390243902431
-683.7560975609764 -844.878048780485 253.26829268292605
-685.3658536585374 -844.6829268292654 252.09756097560899
-686.9756097560984 -844.4878048780458 250.92682926829193
-688.5853658536594 -844.2926829268263 249.75609756097487
-690.1951219512204 -844.0975609756067 248.5853658536578
-691.8048780487813 -843.9024390243871 247.41463414634075
-693.4146341463423 -843.7073170731676 246.24390243902369
-695.0243902439033 -843.512195121948 245.07317073170663
-696.6341463414643 -843.3170731707285 243.90243902438957
-698.2439024390253 -843.1219512195089 242.7317073170725
-699.8536585365863 -842.9268292682893 241.56097560975545
-701.4634146341473 -842.7317073170698 240.39024390243839
-703.0731707317083 -842.5365853658502 239.21951219512133
-704.6829268292693 -842.3414634146307 238.04878048780427
-706.2926829268303 -842.1463414634111 236.8780487804872
-707.9024390243912 -841.9512195121915 235.70731707317015
-709.5121951219522 -841.756097560972 234.53658536585309
-711.1219512195132 -841.5609756097524 233.36585365853603
-712.7317073170742 -841.3658536585328 232.19512195121897
-714.3414634146352 -841.1707317073133 231.0243902439019
-715.9512195121962 -840.9756097560937 229.85365853658485
-717.5609756097572 -840.7804878048742 228.68292682926779
-719.1707317073182 -840.5853658536546 227.51219512195073
-720.7804878048792 -840.390243902435 226.34146341463367
-722.3902439024401 -840.1951219512155 225.1707317073166
-724.0000000000011 -839.9999999999959 223.99999999999955
-725.6097560975621 -839.8048780487763 222.82926829268249
-727.2195121951231 -839.6097560975568 221.65853658536543
-728.8292682926841 -839.4146341463372 220.48780487804837
-730.4390243902451 -839.2195121951177 219.3170731707313
-732.0487804878061 -839.0243902438981 218.14634146341425
-733.6585365853671 -838.8292682926785 216.97560975609719
-735.2682926829281 -838.634146341459 215.80487804878013
-736.878048780489 -838.4390243902394 214.63414634146307
-738.48780487805 -838.2439024390198 213.463414634146
-740.097560975611 -838.0487804878003 212.29268292682895
-741.707317073172 -837.8536585365807 211.12195121951189
-743.317073170733 -837.6585365853612 209.95121951219483
-744.926829268294 -837.4634146341416 208.78048780487777
-746.536585365855 -837.268292682922 207.6097560975607
-748.146341463416 -837.0731707317025 206.43902439024365
-749.756097560977 -836.8780487804829 205.26829268292659
-751.365853658538 -836.6829268292634 204.09756097560953
-752.975609756099 -836.4878048780438 202.92682926829247
-754.5853658536599 -836.2926829268242 201.7560975609754
-756.1951219512209 -836.0975609756047 200.58536585365835
-757.8048780487819 -835.9024390243851 199.41463414634129
-759.4146341463429 -835.7073170731655 198.24390243902423
-761.0243902439039 -835.512195121946 197.07317073170717
-762.6341463414649 -835.3170731707264 195.9024390243901
-764.2439024390259 -835.1219512195069 194.73170731707305
-765.8536585365869 -834.9268292682873 193.56097560975599
-767.4634146341479 -834.7317073170677 192.39024390243893
-769.0731707317088 -834.5365853658482 191.21951219512187
-770.6829268292698 -834.3414634146286 190.0487804878048
-772.2926829268308 -834.146341463409 188.87804878048775
-773.9024390243918 -833.9512195121895 187.70731707317069
-775.5121951219528 -833.7560975609699 186.53658536585363
-777.1219512195138 -833.5609756097504 185.36585365853657
-778.7317073170748 -833.3658536585308 184.1951219512195
-780.3414634146358 -833.1707317073112 183.02439024390245
-781.9512195121968 -832.9756097560917 181.85365853658539
-783.5609756097577 -832.7804878048721 180.68292682926833
-785.1707317073187 -832.5853658536525 179.51219512195127
-786.7804878048797 -832.390243902433 178.3414634146342
-788.3902439024407 -832.1951219512134 177.17073170731715
-790.0000000000017 -831.9999999999939 176.00000000000009
-791.6097560975627 -831.8048780487743 174.82926829268303
-793.2195121951237 -831.6097560975547 173.65853658536597
-794.8292682926847 -831.4146341463352 172.4878048780489
-796.4390243902457 -831.2195121951156 171.31707317073185
-798.0487804878067 -831.024390243896 170.14634146341479
-799.6585365853676 -830.8292682926765 168.97560975609773
-801.2682926829286 -830.6341463414569 167.80487804878067
-802.8780487804896 -830.4390243902374 166.6341463414636
-804.4878048780506 -830.2439024390178 165.46341463414655
-806.0975609756116 -830.0487804877982 164.29268292682949
-807.7073170731726 -829.8536585365787 163.12195121951243
-809.3170731707336 -829.6585365853591 161.95121951219537
-810.9268292682946 -829.4634146341396 160.7804878048783
-812.5365853658556 -829.26829268292 159.60975609756125
-814.1463414634165 -829.0731707317004 158.43902439024419
-815.7560975609775 -828.8780487804809 157.26829268292713
-817.3658536585385 -828.6829268292613 156.09756097561007
-818.9756097560995 -828.4878048780417 154.926829268293
-820.5853658536605 -828.2926829268222 153.75609756097595
-822.1951219512215 -828.0975609756026 152.58536585365889
-823.8048780487825 -827.902439024383 151.41463414634183
-825.4146341463435 -827.7073170731635 150.24390243902477
-827.0243902439045 -827.5121951219439 149.0731707317077
-828.6341463414655 -827.3170731707244 147.90243902439065
-830.2439024390264 -827.1219512195048 146.73170731707359
-831.8536585365874 -826.9268292682852 145.56097560975653
-833.4634146341484 -826.7317073170657 144.39024390243947
-835.0731707317094 -826.5365853658461 143.2195121951224
-836.6829268292704 -826.3414634146266 142.04878048780535
-838.2926829268314 -826.146341463407 140.87804878048829
-839.9024390243924 -825.9512195121874 139.70731707317123
-841.5121951219534 -825.7560975609679 138.53658536585417
-843.1219512195144 -825.5609756097483 137.3658536585371
-844.7317073170753 -825.3658536585287 136.19512195122005
-846.3414634146363 -825.1707317073092 135.02439024390299
-847.9512195121973 -824.9756097560896 133.85365853658593
-849.5609756097583 -824.7804878048701 132.68292682926887
-851.1707317073193 -824.5853658536505 131.5121951219518
-852.7804878048803 -824.3902439024309 130.34146341463475
-856 -824 128
-857.7989595804423 -824.0545139266801 127.12777717311886
-859.5979191608847 -824.1090278533602 126.25555434623772
-861.396878741327 -824.1635417800403 125.38333151935657
-863.1958383217693 -824.2180557067204 124.51110869247543
-864.9947979022116 -824.2725696334005 123.63888586559429
-866.793757482654 -824.3270835600806 122.76666303871315
-868.5927170630963 -824.3815974867607 121.894440211832
-870.3916766435386 -824.4361114134408 121.02221738495086
-872.190636223981 -824.4906253401209 120.14999455806972
-873.9895958044233 -824.545139266801 119.27777173118858
-875.7885553848656 -824.5996531934811 118.40554890430744
-877.587514965308 -824.6541671201612 117.5333260774263
-879.3864745457503 -824.7086810468413 116.66110325054515
-881.1854341261926 -824.7631949735214 115.78888042366401
-882.9843937066349 -824.8177089002015 114.91665759678287
-884.7833532870773 -824.8722228268816 114.04443476990173
-886.5823128675196 -824.9267367535617 113.17221194302059
-888.3812724479619 -824.9812506802418 112.29998911613944
-890.1802320284042 -825.0357646069219 111.4277662892583
-891.9791916088466 -825.090278533602 110.55554346237716
-893.7781511892889 -825.1447924602821 109.68332063549602
-895.5771107697312 -825.1993063869622 108.81109780861487
-897.3760703501736 -825.2538203136423 107.93887498173373
-899.1750299306159 -825.3083342403224 107.06665215485259
-900.9739895110582 -825.3628481670025 106.19442932797145
-902.7729490915005 -825.4173620936826 105.3222065010903
-904.5719086719429 -825.4718760203627 104.44998367420916
-906.3708682523852 -825.5263899470428 103.57776084732802
-908.1698278328275 -825.580903873723 102.70553802044688
-909.9687874132699 -825.635417800403 101.83331519356574
-911.7677469937122 -825.6899317270831 100.9610923666846
-913.5667065741545 -825.7444456537633 100.08886953980345
-915.3656661545969 -825.7989595804434 99.21664671292231
-917.1646257350392 -825.8534735071235 98.34442388604117
-918.9635853154815 -825.9079874338036 97.47220105916003
-920.7625448959238 -825.9625013604837 96.59997823227889
-922.5615044763662 -826.0170152871638 95.72775540539774
-924.3604640568085 -826.0715292138439 94.8555325785166
-926.1594236372508 -826.126043140524 93.98330975163546
-927.9583832176932 -826.1805570672041 93.11108692475432
-929.7573427981355 -826.2350709938842 92.23886409787318
-931.5563023785778 -826.2895849205643 91.36664127099203
-933.3552619590201 -826.3440988472444 90.49441844411089
-935.1542215394625 -826.3986127739245 89.62219561722975
-936.9531811199048 -826.4531267006046 88.74997279034861
-938.7521407003471 -826.5076406272847 87.87774996346747
-940.5511002807895 -826.5621545539648 87.00552713658632
-942.3500598612318 -826.6166684806449 86.13330430970518
-944.1490194416741 -826.671182407325 85.26108148282404
-945.9479790221164 -826.7256963340051 84.3888586559429
-947.7469386025588 -826.7802102606852 83.51663582906176
-949.5458981830011 -826.8347241873653 82.64441300218061
-951.3448577634434 -826.8892381140454 81.77219017529947
-953.1438173438858 -826.9437520407255 80.89996734841833
-954.9427769243281 -826.9982659674056 80.02774452153719
-956.7417365047704 -827.0527798940857 79.15552169465604
-958.5406960852127 -827.1072938207658 78.2832988677749
-960.3396556656551 -827.1618077474459 77.41107604089376
-962.1386152460974 -827.216321674126 76.53885321401262
-963.9375748265397 -827.2708356008061 75.66663038713148
-965.7365344069821 -827.3253495274862 74.79440756025033
-967.5354939874244 -827.3798634541663 73.92218473336919
-969.3344535678667 -827.4343773808464 73.04996190648805
-971.133413148309 -827.4888913075265 72.17773907960691
-972.9323727287514 -827.5434052342066 71.30551625272577
-974.7313323091937 -827.5979191608867 70.43329342584462
-976.530291889636 -827.6524330875668 69.56107059896348
-978.3292514700784 -827.7069470142469 68.68884777208234
-980.1282110505207 -827.761460940927 67.8166249452012
-981.927170630963 -827.8159748676071 66.94440211832006
-983.7261302114053 -827.8704887942872 66.07217929143891
-985.5250897918477 -827.9250027209673 65.19995646455777
-987.32404937229 -827.9795166476474 64.32773363767663
-989.1230089527323 -828.0340305743275 63.45551081079548
-990.9219685331747 -828.0885445010076 62.58328798391433
-992.720928113617 -828.1430584276877 61.71106515703318
-994.5198876940593 -828.1975723543678 60.83884233015203
-996.3188472745016 -828.2520862810479 59.966619503270884
-998.117806854944 -828.306600207728 59.094396676389735
-999.9167664353863 -828.3611141344081 58.222173849508586
-1001.7157260158286 -828.4156280610882 57.34995102262744
-1003.514685596271 -828.4701419877683 56.47772819574629
-1005.3136451767133 -828.5246559144484 55.60550536886514
-1007.1126047571556 -828.5791698411285 54.73328254198399
-1008.911564337598 -828.6336837678086 53.86105971510284
-1010.7105239180403 -828.6881976944887 52.98883688822169
-1012.5094834984826 -828.7427116211688 52.11661406134054
-1014.3084430789249 -828.7972255478489 51.24439123445939
-1016.1074026593673 -828.851739474529 50.37216840757824
-1017.9063622398096 -828.9062534012091 49.499945580697094
-1019.7053218202519 -828.9607673278892 48.627722753815945
-1021.5042814006943 -829.0152812545693 47.755499926934796
-1023.3032409811366 -829.0697951812494 46.88327710005365
-1025.102200561579 -829.1243091079295 46.0110542731725
-1026.9011601420214 -829.1788230346096 45.13883144629135
-1028.7001197224638 -829.2333369612898 44.2666086194102
-1030.4990793029062 -829.2878508879699 43.39438579252905
-1032.2980388833487 -829.34236481465 42.5221629656479
-1034.0969984637911 -829.39687874133 41.64994013876675
-1035.8959580442336 -829.4513926680102 40.7777173118856
-1037.694917624676 -829.5059065946903 39.90549448500445
-1039.4938772051185 -829.5604205213704 39.033271658123304
-1041.292836785561 -829.6149344480505 38.161048831242155
-1043.0917963660033 -829.6694483747306 37.288826004361006
-1044.8907559464458 -829.7239623014107 36.41660317747986
-1046.6897155268882 -829.7784762280908 35.54438035059871
-1048.4886751073307 -829.8329901547709 34.67215752371756
-1050.287634687773 -829.887504081451 33.79993469683641
-1052.0865942682155 -829.9420180081311 32.92771186995526
-1053.885553848658 -829.9965319348112 32.05548904307411
-1055.6845134291004 -830.0510458614913 31.183266216192962
-1057.4834730095429 -830.1055597881714 30.311043389311813
-1059.2824325899853 -830.1600737148515 29.438820562430664
-1061.0813921704278 -830.2145876415316 28.566597735549514
-1062.8803517508702 -830.2691015682117 27.694374908668365
-1064.6793113313126 -830.3236154948918 26.822152081787216
-1066.478270911755 -830.3781294215719 25.949929254906067
-1068.2772304921975 -830.432643348252 25.077706428024918
-1070.07619007264 -830.4871572749321 24.20548360114377
-1071.8751496530824 -830.5416712016122 23.33326077426262
-1073.6741092335249 -830.5961851282923 22.46103794738147
-1075.4730688139673 -830.6506990549724 21.58881512050032
-1077.2720283944097 -830.7052129816525 20.716592293619172
-1079.0709879748522 -830.7597269083326 19.844369466738023
-1080.8699475552946 -830.8142408350127 18.972146639856874
-1082.668907135737 -830.8687547616928 18.099923812975725
-1084.4678667161795 -830.9232686883729 17.227700986094575
-1086.266826296622 -830.977782615053 16.355478159213426
-1088.0657858770644 -831.0322965417331 15.483255332332279
-1089.8647454575068 -831.0868104684132 14.611032505451131
-1091.6637050379493 -831.1413243950933 13.738809678569984
-1093.4626646183917 -831.1958383217734 12.866586851688837
-1095.2616241988342 -831.2503522484535 11.99436402480769
-1097.0605837792766 -831.3048661751336 11.122141197926542
-1098.859543359719 -831.3593801018137 10.249918371045394
-1100.6585029401615 -831.4138940284938 9.377695544164247
-1102.457462520604 -831.4684079551739 8.5054727172831
-1104.2564221010464 -831.522921881854 7.6332498904019515
-1106.0553816814888 -831.5774358085341 6.761027063520803
-1107.8543412619313 -831.6319497352142 5.888804236639655
-1109.6533008423737 -831.6864636618943 5.016581409758507
-1111.4522604228162 -831.7409775885744 4.144358582877358
-1113.2512200032586 -831.7954915152545 3.2721357559962105
-1115.050179583701 -831.8500054419346 2.3999129291150627
-1116.8491391641435 -831.9045193686147 1.5276901022339149
-1120 -832 0
-1122 -832 0
-1124 -832 0
-1126 -832 0
-1128 -832 0
-1130 -832 0
-1132 -832 0
-1134 -832 0
-1136 -832 0
-1138 -832 0
-1140 -832 0
-1142 -832 0
-1144 -832 0
-1146 -832 0
-1148 -832 0
-1150 -832 0
-1152 -832 0
-1154 -832 0
-1156 -832 0
-1158 -832 0
-1160 -832 0
-1162 -832 0
-1164 -832 0
-1166 -832 0
-1168 -832 0
-1170 -832 0
-1172 -832 0
-1174 -832 0
-1176 -832 0
-1178 -832 0
-1180 -832 0
-1184 -832 0
-1185.879586846977 -832.6834861261734 0
-1187.759173693954 -833.3669722523468 0
-1189.638760540931 -834.0504583785203 0
-1191.5183473879079 -834.7339445046937 0
-1193.3979342348848 -835.4174306308671 0
-1195.2775210818618 -836.1009167570405 0
-1197.1571079288387 -836.7844028832139 0
-1199.0366947758157 -837.4678890093874 0
-1200.9162816227927 -838.1513751355608 0
-1202.7958684697696 -838.8348612617342 0
-1204.6754553167466 -839.5183473879076 0
-1206.5550421637236 -840.201833514081 0
-1208.4346290107005 -840.8853196402545 0
-1210.3142158576775 -841.5688057664279 0
-1212.1938027046544 -842.2522918926013 0
-1214.0733895516314 -842.9357780187747 0
-1215.9529763986084 -843.6192641449481 0
-1217.8325632455853 -844.3027502711216 0
-1219.7121500925623 -844.986236397295 0
-1221.5917369395393 -845.6697225234684 0
-1223.4713237865162 -846.3532086496418 0
-1225.3509106334932 -847.0366947758152 0
-1227.2304974804701 -847.7201809019887 0
-1229.110084327447 -848.4036670281621 0
-1230.989671174424 -849.0871531543355 0
-1232.869258021401 -849.7706392805089 0
-1234.748844868378 -850.4541254066824 0
-1236.628431715355 -851.1376115328558 0
-1238.508018562332 -851.8210976590292 0
-1240.387605409309 -852.5045837852026 0
-1242.2671922562859 -853.188069911376 0
-1244.1467791032628 -853.8715560375495 0
-1246.0263659502398 -854.5550421637229 0
-1247.9059527972167 -855.2385282898963 0
-1249.7855396441937 -855.9220144160697 0
-1251.6651264911707 -856.6055005422431 0
-1253.5447133381476 -857.2889866684166 0
-1255.4243001851246 -857.97247279459 0
-1257.3038870321016 -858.6559589207634 0
-1259.1834738790785 -859.3394450469368 0
-1261.0630607260555 -860.0229311731102 0
-1262.9426475730324 -860.7064172992837 0
-1264.8222344200094 -861.3899034254571 0
-1266.7018212669864 -862.0733895516305 0
-1268.5814081139633 -862.7568756778039 0
-1270.4609949609403 -863.4403618039773 0
-1272.3405818079173 -864.1238479301508 0
-1274.2201686548942 -864.8073340563242 0
-1276.0997555018712 -865.4908201824976 0
-1277.9793423488481 -866.174306308671 0
-1279.858929195825 -866.8577924348444 0
-1281.738516042802 -867.5412785610179 0
-1283.618102889779 -868.2247646871913 0
-1285.497689736756 -868.9082508133647 0
-1287.377276583733 -869.5917369395381 0
-1289.25686343071 -870.2752230657115 0
-1291.136450277687 -870.958709191885 0
-1293.0160371246639 -871.6421953180584 0
-1294.8956239716408 -872.3256814442318 0
-1296.7752108186178 -873.0091675704052 0
-1298.6547976655947 -873.6926536965786 0
-1300.5343845125717 -874.3761398227521 0
-1302.4139713595487 -875.0596259489255 0
-1304.2935582065256 -875.7431120750989 0
-1306.1731450535026 -876.4265982012723 0
-1308.0527319004796 -877.1100843274457 0
-1309.9323187474565 -877.7935704536192 0
-1311.8119055944335 -878.4770565797926 0
-1313.6914924414104 -879.160542705966 0
-1315.5710792883874 -879.8440288321394 0
-1317.4506661353644 -880.5275149583128 0
-1319.3302529823413 -881.2110010844863 0
-1321.2098398293183 -881.8944872106597 0
-1323.0894266762953 -882.5779733368331 0
-1324.9690135232722 -883.2614594630065 0
-1326.8486003702492 -883.94494558918 0
-1328.7281872172262 -884.6284317153534 0
-1330.607774064203 -885.3119178415268 0
-1332.48736091118 -885.9954039677002 0
-1334.366947758157 -886.6788900938736 0
-1336.246534605134 -887.362376220047 0
-1338.126121452111 -888.0458623462205 0
-1340.005708299088 -888.7293484723939 0
-1341.885295146065 -889.4128345985673 0
-1343.7648819930419 -890.0963207247407 0
-1345.6444688400188 -890.7798068509142 0
-1347.5240556869958 -891.4632929770876 0
-1349.4036425339727 -892.146779103261 0
-1351.2832293809497 -892.8302652294344 0
-1353.1628162279267 -893.5137513556078 0
-1355.0424030749036 -894.1972374817813 0
-1356.9219899218806 -894.8807236079547 0
-1360 -896 0
-1360 -898 0
-1360 -900 0
-1360 -902 0
-1360 -904 0
-1360 -906 0
-1360 -908 0
-1360 -910 0
-1360 -912 0
-1360 -914 0
-1360 -916 0
-1360 -918 0
-1360 -920 0
-1360 -922 0
-1360 -924 0
-1360 -926 0
-1360 -928 0
-1360 -930 0
-1360 -932 0
-1360 -934 0
-1360 -936 0
-1360 -938 0
-1360 -940 0
-1360 -942 0
-1360 -944 0
-1360 -946 0
-1360 -948 0
-1360 -950 0
-1360 -952 0
-1360 -954 0
-1360 -956 0
-1360 -958 0
-1360 -960 0
-1360 -962 0
-1360 -964 0
-1360 -966 0
-1360 -968 0
-1360 -970 0
-1360 -972 0
-1360 -974 0
-1360 -976 0
-1360 -978 0
-1360 -980 0
-1360 -982 0
-1360 -984 0
-1360 -986 0
-1360 -988 0
-1360 -990 0
-1360 -992 0
-1360 -994 0
-1360 -996 0
-1360 -998 0
-1360 -1000 0
-1360 -1002 0
-1360 -1004 0
-1360 -1006 0
-1360 -1008 0
-1360 -1010 0
-1360 -1012 0
-1360 -1014 0
-1360 -1016 0
-1360 -1018 0
-1360 -1020 0
-1360 -1022 0
-1360 -1024 0
-1360 -1026 0
-1360 -1028 0
-1360 -1030 0
-1360 -1032 0
-1360 -1034 0
-1360 -1036 0
-1360 -1038 0
-1360 -1040 0
-1360 -1042 0
-1360 -1044 0
-1360 -1046 0
-1360 -1048 0
-1360 -1050 0
-1360 -1052 0
-1360 -1054 0
-1360 -1056 0
-1360 -1058 0
-1360 -1060 0
-1360 -1062 0
-1360 -1064 0
-1360 -1066 0
-1360 -1068 0
-1360 -1070 0
-1360 -1072 0
-1360 -1074 0
-1360 -1076 0
-1360 -1078 0
-1360 -1080 0
-1360 -1082 0
-1360 -1084 0
-1360 -1086 0
-1360 -1088 0
-1360 -1090 0
-1360 -1092 0
-1360 -1094 0
-1360 -1096 0
-1360 -1098 0
-1360 -1100 0
-1360 -1102 0
-1360 -1104 0
-1360 -1106 0
-1360 -1108 0
-1360 -1110 0
-1360 -1112 0
-1360 -1114 0
-1360 -1116 0
-1360 -1118 0
-1360 -1120 0
-1360 -1122 0
-1360 -1124 0
-1360 -1126 0
-1360 -1128 0
-1360 -1130 0
-1360 -1132 0
-1360 -1136 0
-1360 -1137.9874237306651 -0.2239350682439491
-1360 -1139.9748474613302 -0.4478701364878982
-1360 -1141.9622711919953 -0.6718052047318472
-1360 -1143.9496949226605 -0.8957402729757964
-1360 -1145.9371186533256 -1.1196753412197455
-1360 -1147.9245423839907 -1.3436104094636947
-1360 -1149.9119661146558 -1.5675454777076439
